-1.640299999999999869e+01 -4.586599999999999966e+01 -1.138799999999999990e+01 -1.507532000000000094e+00 -2.352503657914130630e-01
-1.640099999999999980e+01 -3.388799999999999812e+01 -6.157300000000000217e+00 -1.918714000000000031e+00 -1.978023533694207026e-01
-1.638100000000000023e+01 -2.612300000000000111e+01 -1.425399999999999956e+01 -4.754840999999999873e+00 -4.292427321932162920e-01
-1.637699999999999889e+01 -4.062800000000000011e+01 -6.812999999999999723e+00 3.344884000000000190e-01 -2.002682643418985664e-01
-1.637500000000000000e+01 -2.660099999999999909e+01 -1.358300000000000018e+01 -5.518336999999999826e+00 -4.289016054072959383e-01
-1.637300000000000111e+01 -4.461399999999999721e+01 -6.381000000000000227e+00 8.488231000000000526e-01 -4.161568789425620918e-01
-1.637099999999999866e+01 -4.981600000000000250e+01 -2.627800000000000136e+00 -4.270931000000000033e+00 -1.729261095216115540e-01
-1.636700000000000088e+01 -4.627799999999999869e+01 -1.231300000000000061e+01 -7.786982999999999544e-01 -2.145409670371817845e-01
-1.635000000000000142e+01 -3.779200000000000159e+01 -6.302999999999999936e+00 5.096992000000000189e+00 -1.996794488914829802e-01
-1.634600000000000009e+01 -4.271800000000000352e+01 -1.147799999999999976e+01 -7.441278999999999755e+00 -2.006436285484888560e-01
-1.634400000000000119e+01 -3.548100000000000165e+01 -6.174999999999999822e+00 -5.701353000000000115e-01 -1.990718435987640089e-01
-1.634400000000000119e+01 -2.760300000000000153e+01 -1.374099999999999966e+01 -4.826798000000000144e+00 -4.287657274230641247e-01
-1.633999999999999986e+01 -4.909100000000000108e+01 -2.009999999999999787e+00 -3.675931999999999977e+00 -1.732835510585199190e-01
-1.633699999999999974e+01 -3.303000000000000114e+01 -2.245299999999999940e+01 -2.723631000000000135e+00 -4.297618079194291951e-01
-1.633500000000000085e+01 -4.631499999999999773e+01 -1.583000000000000007e+01 3.147278000000000020e+00 -2.146839119236012561e-01
-1.633500000000000085e+01 -4.606099999999999994e+01 -1.672400000000000020e+01 -9.395010000000000305e-01 -2.148978561116076658e-01
-1.633099999999999952e+01 -3.354999999999999716e+01 -5.347000000000000419e+00 -2.429545000000000066e+00 -1.981848160054528185e-01
-1.632799999999999940e+01 -3.423400000000000176e+01 -6.983100000000000307e+00 -6.628923000000000343e+00 -1.977025894586795229e-01
-1.632100000000000151e+01 -3.374699999999999989e+01 -6.792500000000000426e+00 -5.079199000000000019e+00 -1.972862963475650877e-01
-1.631899999999999906e+01 -2.527899999999999991e+01 -1.436899999999999977e+01 -6.439092999999999734e+00 -4.294875479938394802e-01
-1.631599999999999895e+01 -3.777600000000000335e+01 -4.858999999999999986e+00 8.277518000000000375e-01 -1.998697577537021930e-01
-1.629599999999999937e+01 -3.025600000000000023e+01 -9.618000000000000327e+00 -6.217268999999999934e+00 -1.914087528633364454e-01
-1.629200000000000159e+01 -4.301400000000000290e+01 2.779099999999999904e-01 4.319962999999999997e-01 -1.956976592130796888e-01
-1.629200000000000159e+01 -4.214900000000000091e+01 2.779099999999999904e-01 3.629745000000000221e+00 -2.055408076974619969e-01
-1.628999999999999915e+01 -4.345900000000000318e+01 -6.441600000000000215e+00 -1.424678000000000055e-01 -4.160592192056129512e-01
-1.628699999999999903e+01 -4.764000000000000057e+01 -1.144100000000000072e+01 -1.081914999999999960e+00 -3.857916834211564394e-01
-1.628699999999999903e+01 -3.709300000000000352e+01 -6.320599999999999774e+00 -5.902671999999999919e-01 -1.995552993185360502e-01
-1.628699999999999903e+01 -3.622699999999999676e+01 -6.320599999999999774e+00 -2.800568999999999864e+00 -1.993246087676313061e-01
-1.628699999999999903e+01 -3.622699999999999676e+01 -4.920600000000000307e+00 -7.134749000000000230e-01 -1.995246010452541574e-01
-1.627799999999999869e+01 -3.082400000000000162e+01 -1.043200000000000038e+01 -4.050807999999999964e+00 -1.917351313294686499e-01
-1.627400000000000091e+01 -2.819600000000000151e+01 2.049999999999999878e-01 -3.126447999999999894e+00 -2.024072956263955059e-01
-1.627400000000000091e+01 -2.675000000000000000e+01 -6.012600000000000167e-01 -1.626164999999999949e+01 -1.947610579449891299e-01
-1.627400000000000091e+01 -2.640500000000000114e+01 -1.383899999999999908e+00 -1.720366999999999891e+01 -1.892292329123417827e-01
-1.626999999999999957e+01 -2.882600000000000051e+01 -1.851999999999999957e+01 -4.915750000000000064e+00 -4.297323633036630453e-01
-1.626200000000000045e+01 -4.066799999999999926e+01 -2.614099999999999824e+01 5.774403999999999648e+00 -4.295823582951349695e-01
-1.625799999999999912e+01 -3.807999999999999829e+01 -5.559000000000000163e+00 1.663221000000000060e+01 -1.999006614409676585e-01
-1.625700000000000145e+01 -3.762400000000000233e+01 -2.474299999999999855e+01 -7.009459999999999802e+00 -4.296290290801038081e-01
-1.625700000000000145e+01 -4.794299999999999784e+01 -5.181499999999999773e+00 -2.012892000000000081e+01 -3.879825710022662411e-01
-1.625700000000000145e+01 -4.707699999999999818e+01 -5.181499999999999773e+00 -8.932002000000000663e+00 -3.876498007567373283e-01
-1.624599999999999866e+01 -3.939300000000000068e+01 -8.358499999999999375e+00 1.730893000000000015e+00 -2.000211371092723289e-01
-1.624299999999999855e+01 -4.006799999999999784e+01 -1.003500000000000014e+01 -5.325328999999999979e+00 -2.001565593771856000e-01
-1.623100000000000165e+01 -2.816199999999999903e+01 -4.114399999999999835e+00 -2.373918000000000195e+00 -1.890458630794587536e-01
-1.622899999999999920e+01 -3.592399999999999949e+01 -5.620599999999999596e+00 6.496329000000000242e+00 -1.993914639054832627e-01
-1.622100000000000009e+01 -4.556499999999999773e+01 -6.332799999999999763e+00 3.448878999999999806e+00 -4.068295152840186724e-01
-1.621600000000000108e+01 -4.727100000000000080e+01 -1.229100000000000037e+01 4.006007999999999569e+00 -3.853462425091324639e-01
-1.621600000000000108e+01 -4.727100000000000080e+01 -1.059099999999999930e+01 -1.872579999999999911e+00 -3.859199149756690206e-01
-1.621600000000000108e+01 -4.622099999999999653e+01 -1.059099999999999930e+01 -2.164681999999999995e+00 -3.853394271478968180e-01
-1.621099999999999852e+01 -2.504400000000000048e+01 -1.574699999999999989e+01 -6.659834000000000032e+00 -4.299449266151870175e-01
-1.620899999999999963e+01 -3.968399999999999750e+01 -2.617399999999999949e+01 3.369133000000000155e+00 -4.296280296025787315e-01
-1.620799999999999841e+01 -3.167999999999999972e+01 -2.154400000000000048e+01 -8.044663999999999149e+00 -4.297860904319183994e-01
-1.619500000000000028e+01 -4.132900000000000063e+01 -1.083799999999999919e+01 1.518469999999999942e+01 -2.004468425008344157e-01
-1.619200000000000017e+01 -4.388600000000000279e+01 -2.377199999999999847e+01 -1.047391999999999967e+01 -2.125661472167224009e-01
-1.618499999999999872e+01 -3.107799999999999940e+01 -1.210899999999999999e+01 -1.208291000000000004e+01 -2.266664392334992173e-01
-1.618499999999999872e+01 -3.086799999999999855e+01 -1.284500000000000064e+01 -1.578087999999999980e+01 -2.248656560674477112e-01
-1.617999999999999972e+01 -3.711699999999999733e+01 -1.411200000000000010e+00 7.727053999999999867e+00 -4.167511382803684161e-01
-1.617599999999999838e+01 -4.481000000000000227e+01 -2.285500000000000043e+01 -9.665062000000000708e+00 -2.346879427378870953e-01
-1.617299999999999827e+01 -4.207900000000000063e+01 -2.476999999999999957e+01 -2.101303999999999950e-01 -4.294215963369630851e-01
-1.617099999999999937e+01 -3.029400000000000048e+01 -1.861299999999999955e+01 -1.416446999999999967e+01 -4.295233847393887250e-01
-1.616199999999999903e+01 -2.540399999999999991e+01 -1.652100000000000080e+01 -3.837639999999999940e+00 -4.300267312958792054e-01
-1.616000000000000014e+01 -3.668500000000000227e+01 -2.415500000000000114e+01 7.183300000000000241e-01 -4.296301153783136928e-01
-1.615899999999999892e+01 -4.484799999999999898e+01 -1.127100000000000080e+01 -1.744509000000000087e+00 -2.354570022362066639e-01
-1.615700000000000003e+01 -4.261899999999999977e+01 -2.454799999999999827e+01 -4.333510000000000417e+00 -4.293861386428287075e-01
-1.614699999999999847e+01 -2.981800000000000139e+01 -4.006300000000000416e+00 -6.104701999999999629e+00 -1.939852534760739822e-01
-1.614300000000000068e+01 -4.951200000000000045e+01 -5.101700000000000124e+00 -5.391865000000000130e+00 -1.703902555825689835e-01
-1.613800000000000168e+01 -2.727700000000000102e+01 -1.926000000000000156e+01 -8.809702999999999840e-01 -4.301164365320507277e-01
-1.613700000000000045e+01 -4.512700000000000244e+01 1.527500000000000080e+00 -2.404856999999999800e+00 -1.955545003282465888e-01
-1.612600000000000122e+01 -2.465200000000000102e+01 -1.411100000000000065e+01 -1.027555000000000085e+01 -4.295381019218633689e-01
-1.612399999999999878e+01 -4.665299999999999869e+01 -6.271600000000000286e+00 9.519653999999999616e-01 -3.873746676120259358e-01
-1.612300000000000111e+01 -4.795300000000000296e+01 -1.422900000000000054e+00 9.667525000000000146e-01 -1.936422105885166611e-01
-1.612199999999999989e+01 -3.761800000000000210e+01 -5.191400000000000459e-01 1.772919999999999874e+01 -4.170957712546599083e-01
-1.612000000000000099e+01 -2.995299999999999940e+01 -1.216299999999999937e+00 -1.267032000000000025e+01 -2.005420058125265137e-01
-1.611899999999999977e+01 -3.215999999999999659e+01 -8.119699999999999918e+00 7.973497000000000057e+00 -1.947936217575469142e-01
-1.611499999999999844e+01 -4.177600000000000335e+01 -2.546999999999999886e+01 3.172667999999999822e+00 -4.294819036002739954e-01
-1.611400000000000077e+01 -3.263600000000000279e+01 -7.524399999999999977e+00 4.117676999999999587e+00 -1.957208510649324773e-01
-1.610200000000000031e+01 -3.083500000000000085e+01 -8.977499999999999147e+00 2.399213000000000040e-01 -1.926685228714023479e-01
-1.610000000000000142e+01 -2.302499999999999858e+01 -1.490900000000000070e+01 -8.483152000000000470e+00 -4.303867685867137638e-01
-1.610000000000000142e+01 -2.617999999999999972e+01 -2.568400000000000016e+00 -4.466880999999999879e+00 -1.842424233744087148e-01
-1.609900000000000020e+01 -2.707900000000000063e+01 -3.302999999999999936e+00 1.178436000000000039e+00 -1.867798969473877801e-01
-1.608899999999999864e+01 -3.517000000000000171e+01 -2.403900000000000148e+01 -1.745004000000000000e+00 -4.297210404060963773e-01
-1.608899999999999864e+01 -3.372399999999999665e+01 -2.323300000000000054e+01 4.159612000000000087e+00 -4.297611323669864869e-01
-1.608399999999999963e+01 -3.337599999999999767e+01 -4.514000000000000234e+00 2.489586000000000077e+00 -1.991210621683465465e-01
-1.607999999999999829e+01 -3.814000000000000057e+01 -2.549399999999999977e+01 -2.306159000000000070e+00 -4.296509760166513092e-01
-1.607600000000000051e+01 -4.831900000000000261e+01 -5.655899999999999928e+00 -4.998746999999999829e+00 -3.881097192538545682e-01
-1.607499999999999929e+01 -3.433400000000000318e+01 -1.857199999999999962e+00 -1.951604999999999990e+01 -2.003429287160978234e-01
-1.607400000000000162e+01 -4.326800000000000068e+01 1.441999999999999948e+00 -1.063713000000000020e-01 -1.962940560533749657e-01
-1.606800000000000139e+01 -4.201100000000000279e+01 7.490200000000000191e-01 9.352956000000000714e+00 -2.060130168796525107e-01
-1.606200000000000117e+01 -4.640500000000000114e+01 -1.429199999999999982e+01 1.390927000000000024e+00 -2.142892992061894708e-01
-1.606200000000000117e+01 -4.473700000000000188e+01 -2.008699999999999974e+01 -1.455558000000000085e+01 -2.363847037828034348e-01
-1.605999999999999872e+01 -3.294599999999999795e+01 -6.801300000000000345e+00 -1.796394000000000046e-01 -1.966364333202397785e-01
-1.604899999999999949e+01 -3.734400000000000119e+01 -5.559000000000000163e+00 4.403561999999999976e+00 -1.999190658727146297e-01
-1.604700000000000060e+01 -2.577400000000000091e+01 -1.835099999999999909e+01 1.644968999999999903e+00 -4.302806675225210320e-01
-1.604700000000000060e+01 -2.551999999999999957e+01 -1.745700000000000074e+01 -5.659625999999999824e-01 -4.301776670413245407e-01
-1.604500000000000171e+01 -4.018699999999999761e+01 -7.403900000000000148e+00 5.140748000000000317e+00 -2.003623558900272106e-01
-1.604400000000000048e+01 -4.140699999999999648e+01 -2.632000000000000028e+01 3.664881999999999862e-01 -4.295539988861922787e-01
-1.604100000000000037e+01 -4.643800000000000239e+01 -1.525200000000000067e+01 2.141468999999999845e+00 -2.143221682459264255e-01
-1.603600000000000136e+01 -4.352199999999999847e+01 -2.447299999999999898e+01 -4.017293999999999699e+00 -2.119816120686705274e-01
-1.603200000000000003e+01 -2.956800000000000139e+01 -9.114000000000000767e+00 -9.054232999999999976e+00 -2.291614293611522746e-01
-1.603099999999999881e+01 -2.859600000000000009e+01 -1.353400000000000070e+01 -2.628465999999999969e+00 -4.284990635394544389e-01
-1.603000000000000114e+01 -2.627199999999999847e+01 -1.312100000000000044e+01 -5.960615999999999914e+00 -4.287155768783178500e-01
-1.602700000000000102e+01 -2.966100000000000136e+01 -1.356099999999999994e+01 -6.487642000000000131e+00 -4.283998494084156894e-01
-1.602100000000000080e+01 -4.697599999999999909e+01 -7.028999999999999915e+00 1.032828999999999997e+00 -3.873422909544222970e-01
-1.601999999999999957e+01 -2.580300000000000082e+01 -1.349600000000000044e+01 -7.369464999999999932e+00 -4.289637870447992607e-01
-1.601999999999999957e+01 -3.665999999999999659e+01 -5.620599999999999596e+00 2.859884999999999788e+00 -1.997820584485025253e-01
-1.601699999999999946e+01 -3.996399999999999864e+01 -9.450599999999999667e+00 -2.788568000000000158e+00 -2.002690059096215724e-01
-1.600499999999999901e+01 -4.671500000000000341e+01 -4.193700000000000205e-01 4.063329000000000413e+00 -1.932975887336202125e-01
-1.600300000000000011e+01 -4.468699999999999761e+01 2.291999999999999815e+00 1.768391999999999964e+00 -1.962330679385430043e-01
-1.600300000000000011e+01 -4.363700000000000045e+01 2.291999999999999815e+00 -6.798167000000000515e-01 -1.968599495558347734e-01
-1.598900000000000077e+01 -2.382300000000000040e+01 -1.490900000000000070e+01 -8.376281000000000532e+00 -4.300493824324592151e-01
-1.598700000000000010e+01 -3.986200000000000188e+01 -8.311899999999999622e+00 -1.041546000000000000e-01 -2.002929595835105103e-01
-1.598099999999999987e+01 -3.515899999999999892e+01 -1.105900000000000105e+00 -6.640483999999999831e+00 -4.166909543803732907e-01
-1.597100000000000009e+01 -4.659100000000000108e+01 -1.289799999999999969e+01 2.598053999999999863e+00 -2.139846801127979481e-01
-1.596599999999999930e+01 -2.952599999999999980e+01 -1.846099999999999852e+01 -1.347206000000000081e+01 -4.295766597067021131e-01
-1.595800000000000018e+01 -4.007000000000000028e+01 1.368000000000000105e+00 2.446161000000000030e+01 -2.040316248976710989e-01
-1.594699999999999918e+01 -4.466400000000000148e+01 -1.842800000000000082e+01 4.446969000000000061e-01 -2.011714609730933245e-01
-1.594699999999999918e+01 -4.445499999999999829e+01 -1.916400000000000148e+01 -5.715574000000000154e+00 -2.010433068368960574e-01
-1.594500000000000028e+01 -4.435399999999999920e+01 -2.361599999999999966e+01 -5.555848000000000120e+00 -2.130884112480633807e-01
-1.594100000000000072e+01 -3.859499999999999886e+01 6.738300000000000400e-01 1.062978000000000023e+01 -1.996948101392594377e-01
-1.593699999999999939e+01 -2.370799999999999841e+01 -1.412599999999999945e+01 -6.749371000000000009e+00 -4.298167551066965908e-01
-1.592099999999999937e+01 -3.609799999999999898e+01 -1.205000000000000071e+00 -1.042229000000000028e+01 -4.167100833516053093e-01
-1.591200000000000081e+01 -4.628799999999999670e+01 -1.359800000000000075e+01 5.563109999999999999e+00 -2.141825234548803691e-01
-1.589899999999999913e+01 -4.117699999999999960e+01 -6.732199999999999740e+00 -2.325951000000000060e-02 -2.345843734234388245e-01
-1.589199999999999946e+01 -4.408899999999999864e+01 -6.977100000000000080e+00 3.686691999999999858e+00 -4.159964549185371507e-01
-1.589100000000000001e+01 -2.484499999999999886e+01 -1.357600000000000051e+01 -7.302639000000000102e+00 -4.292167574874888314e-01
-1.589100000000000001e+01 -2.397899999999999920e+01 -1.357600000000000051e+01 -5.645927999999999614e+00 -4.294959339418356059e-01
-1.588599999999999923e+01 -4.527900000000000347e+01 -2.209600000000000009e+01 -1.481351000000000084e+01 -2.354845507643305302e-01
-1.588499999999999979e+01 -4.518099999999999739e+01 -2.109499999999999886e+01 -1.627824000000000026e+01 -2.360378276353111704e-01
-1.588299999999999912e+01 -4.609599999999999653e+01 -7.081800000000000317e+00 4.010944000000000287e+00 -4.070849239615889070e-01
-1.587299999999999933e+01 -2.222599999999999909e+01 -1.490900000000000070e+01 -7.137704000000000271e+00 -4.306683598153092651e-01
-1.586899999999999977e+01 -4.747999999999999687e+01 -6.214100000000000179e+00 -2.945847999999999800e+00 -3.877959604055308263e-01
-1.586700000000000088e+01 -4.264399999999999835e+01 -6.638499999999999623e+00 3.741035999999999806e-01 -4.159232140309868653e-01
-1.586599999999999966e+01 -2.767299999999999827e+01 -4.165000000000000036e+00 -1.596570000000000045e+00 -1.883619204778622658e-01
-1.586299999999999955e+01 -3.000100000000000122e+01 -9.949099999999999611e+00 -7.062547999999999604e+00 -2.283819472902177128e-01
-1.585899999999999999e+01 -4.674600000000000222e+01 -9.964700000000000557e+00 -1.075603000000000087e+00 -3.859875160402151950e-01
-1.584500000000000064e+01 -4.819299999999999784e+01 -1.132699999999999996e+01 -2.147962999999999845e+00 -3.862440395743452770e-01
-1.584299999999999997e+01 -3.298400000000000176e+01 -5.812299999999999578e+00 -2.670500999999999792e+00 -1.977769053350776907e-01
-1.584099999999999930e+01 -2.591400000000000148e+01 -1.780499999999999972e+00 -7.389442999999999984e+00 -1.870704561307763580e-01
-1.583399999999999963e+01 -4.814800000000000324e+01 -1.199900000000000055e+01 -1.568021000000000109e+00 -3.859933037433745939e-01
-1.582499999999999929e+01 -4.817300000000000182e+01 -6.328999999999999737e+00 -3.612210999999999839e+00 -3.880426827587334926e-01
-1.581000000000000050e+01 -4.076800000000000068e+01 -1.030199999999999960e+01 1.445597999999999939e+00 -2.005426153114966414e-01
-1.581000000000000050e+01 -2.435999999999999943e+01 -1.566900000000000048e+01 -7.417238000000000220e+00 -4.300440505693036153e-01
-1.581000000000000050e+01 -2.349500000000000099e+01 -1.566900000000000048e+01 -6.832705999999999946e+00 -4.303390868477654507e-01
-1.581000000000000050e+01 -2.255499999999999972e+01 -1.566900000000000048e+01 -7.055527999999999800e+00 -4.307047494216563743e-01
-1.581000000000000050e+01 -2.255499999999999972e+01 -1.414899999999999913e+01 -7.803334000000000437e+00 -4.302611176785590130e-01
-1.580799999999999983e+01 -4.879699999999999704e+01 -1.373899999999999899e+00 -5.317586999999999620e+00 -1.733740212378730716e-01
-1.580599999999999916e+01 -3.079599999999999937e+01 -1.940700000000000003e+01 -3.257285999999999859e+01 -4.295516471115830015e-01
-1.580499999999999972e+01 -2.876899999999999835e+01 -9.114000000000000767e+00 -7.055461000000000205e+00 -2.263871030278267471e-01
-1.580400000000000027e+01 -2.817399999999999949e+01 -1.913800000000000168e+01 -2.845380000000000020e+00 -4.298870341863453293e-01
-1.579499999999999993e+01 -4.220300000000000296e+01 -1.104899999999999949e+01 4.104193000000000424e+00 -2.008083666468022943e-01
-1.579100000000000037e+01 -2.726699999999999946e+01 -2.448499999999999982e-02 -9.569575000000000387e+00 -2.023023322528160750e-01
-1.577800000000000047e+01 -4.594599999999999795e+01 -1.686400000000000077e+01 1.687575000000000047e-01 -2.145358831386975917e-01
-1.576900000000000013e+01 -3.888700000000000045e+01 -2.603999999999999915e+01 8.444738999999999995e-01 -4.296369046958425919e-01
-1.576800000000000068e+01 -4.352900000000000347e+01 -1.167300000000000004e+01 -2.161096999999999824e+01 -2.010425896464234086e-01
-1.576699999999999946e+01 -4.786999999999999744e+01 -7.028999999999999915e+00 -3.210681999999999814e+00 -3.878481993900131930e-01
-1.576600000000000001e+01 -3.112099999999999866e+01 -8.258300000000000196e+00 2.946553000000000200e+00 -1.937148296031205585e-01
-1.576600000000000001e+01 -3.592699999999999960e+01 -2.414199999999999946e+01 -1.242764999999999898e+00 -4.296553681370348654e-01
-1.575999999999999979e+01 -5.029599999999999937e+01 -2.193000000000000060e+00 -4.257952000000000403e+00 -1.729850235980589235e-01
-1.575600000000000023e+01 -2.718400000000000105e+01 -1.313000000000000078e+01 -5.571639000000000230e+00 -4.284940204144517262e-01
-1.575600000000000023e+01 -2.535999999999999943e+01 -1.313000000000000078e+01 -6.556888999999999967e+00 -4.288595460951613036e-01
-1.574200000000000088e+01 -3.003800000000000026e+01 -8.353999999999999204e+00 -6.926614999999999966e+00 -1.919807060346842842e-01
-1.574200000000000088e+01 -2.909799999999999898e+01 -9.874000000000000554e+00 -6.556949000000000360e+00 -2.255342182498881465e-01
-1.574200000000000088e+01 -2.909799999999999898e+01 -8.353999999999999204e+00 -7.001325999999999716e+00 -1.902938711741412603e-01
-1.574099999999999966e+01 -5.039600000000000080e+01 -2.964999999999999858e+00 -4.414342999999999684e+00 -1.722223526183203623e-01
-1.573799999999999955e+01 -3.237199999999999989e+01 -2.195799999999999841e+01 -5.410688000000000386e+00 -4.297215697054884709e-01
-1.573799999999999955e+01 -3.114699999999999847e+01 -2.111299999999999955e+01 -9.452097999999999445e+00 -4.297492776380059665e-01
-1.573799999999999955e+01 -3.092000000000000171e+01 -2.031400000000000006e+01 -2.317513999999999896e+01 -4.296666472183631180e-01
-1.573600000000000065e+01 -4.531099999999999994e+01 -1.078899999999999970e+01 -1.389142000000000099e+00 -2.145952540317081214e-01
-1.573499999999999943e+01 -3.306900000000000261e+01 -4.821699999999999875e+00 -2.895179000000000169e+00 -1.990559610856880435e-01
-1.573300000000000054e+01 -3.377900000000000347e+01 -2.754700000000000149e+00 -4.802810000000000201e+01 -2.004425570523583056e-01
-1.572700000000000031e+01 -4.817900000000000205e+01 -1.075099999999999945e+01 -2.501447999999999894e+00 -3.864849433224575859e-01
-1.571599999999999930e+01 -3.319599999999999795e+01 -2.255099999999999838e+01 -3.611782999999999966e+00 -4.297083657301036252e-01
-1.571499999999999986e+01 -2.902499999999999858e+01 8.241000000000000061e-03 -1.068072000000000088e+01 -2.050729301098675739e-01
-1.571299999999999919e+01 -2.902499999999999858e+01 -4.434400000000000119e+00 -5.715497000000000050e+00 -1.924932238626427816e-01
-1.571299999999999919e+01 -4.260000000000000142e+01 -2.526800000000000068e+01 -2.744072000000000067e+00 -4.294206815237563424e-01
-1.570700000000000074e+01 -3.697800000000000153e+01 -2.440399999999999991e+01 -2.782204000000000121e+00 -4.296072712954918660e-01
-1.570299999999999940e+01 -4.904899999999999949e+01 -5.636599999999999611e+00 -4.772180999999999784e+00 -3.885040557256605465e-01
-1.569699999999999918e+01 -4.996699999999999875e+01 -1.433000000000000052e+00 -1.669118999999999886e+01 -1.736403135911305518e-01
-1.569599999999999973e+01 -4.750099999999999767e+01 -7.878999999999999559e+00 9.224495999999999807e-01 -3.873548156141797261e-01
-1.569599999999999973e+01 -4.645100000000000051e+01 -7.878999999999999559e+00 2.339613999999999905e+01 -3.867681898180489464e-01
-1.568200000000000038e+01 -3.045599999999999952e+01 -1.105400000000000027e+01 -8.885014999999999219e+00 -2.272783763396103163e-01
-1.568099999999999916e+01 -3.805100000000000193e+01 2.716999999999999971e-01 1.151187000000000005e+01 -1.975427928776681274e-01
-1.567300000000000004e+01 -5.027199999999999847e+01 -3.871999999999999886e+00 -5.272275999999999740e+00 -1.712675363582940868e-01
-1.567300000000000004e+01 -5.004500000000000171e+01 -4.671100000000000030e+00 -7.867009000000000363e+00 -1.705006388893822999e-01
-1.567200000000000060e+01 -4.244400000000000261e+01 1.239900000000000002e+00 8.798425999999999192e+00 -1.955973730227772711e-01
-1.567099999999999937e+01 -2.670400000000000063e+01 -7.510700000000000154e-01 -2.456851999999999947e+01 -1.972857327494615121e-01
-1.566999999999999993e+01 -4.310000000000000142e+01 -2.508099999999999952e+01 -3.831944000000000017e+00 -4.293894816461307218e-01
-1.566900000000000048e+01 -4.615500000000000114e+01 1.525400000000000089e-01 5.814642000000000088e+00 -1.932081357514178754e-01
-1.564400000000000013e+01 -3.187600000000000122e+01 -7.794200000000000017e+00 2.019771000000000072e+01 -1.951817796711882436e-01
-1.563899999999999935e+01 -4.516199999999999903e+01 -1.762199999999999989e+01 -2.797320999999999835e-01 -2.149607406583954883e-01
-1.563199999999999967e+01 -2.441400000000000148e+01 -1.312599999999999945e+01 -3.641119000000000216e+00 -4.290889348064816922e-01
-1.562199999999999989e+01 -3.066799999999999926e+01 -2.630999999999999783e+00 -9.757989000000000246e+00 -1.995221997416870008e-01
-1.562199999999999989e+01 -3.041400000000000148e+01 -3.524700000000000166e+00 -7.039585999999999899e+00 -1.973024613429516516e-01
-1.561899999999999977e+01 -4.724699999999999989e+01 -8.713499999999999579e-01 8.815585999999999700e+00 -1.934865350938817230e-01
-1.561400000000000077e+01 -2.482000000000000028e+01 -1.632400000000000162e+01 -8.917946999999999846e+00 -4.300322631338252544e-01
-1.560899999999999999e+01 -2.578399999999999892e+01 -3.000999999999999890e+00 -4.929908000000000179e+00 -1.830306945385311579e-01
-1.560800000000000054e+01 -4.713799999999999812e+01 -1.317200000000000060e+01 5.782943999999999640e+00 -3.851821532886068877e-01
-1.560699999999999932e+01 -4.489500000000000313e+01 -7.014400000000000190e+00 8.471954999999999458e+00 -4.064000815936084088e-01
-1.560699999999999932e+01 -2.607499999999999929e+01 -1.920499999999999829e+01 3.332800999999999902e+00 -4.302824793958001659e-01
-1.559600000000000009e+01 -4.187700000000000244e+01 -6.674000000000000377e+00 4.566945000000000032e-01 -4.158194770737034807e-01
-1.559399999999999942e+01 -3.036100000000000065e+01 -1.329400000000000048e+01 -2.120029999999999859e+00 -2.230924059509343249e-01
-1.559200000000000053e+01 -2.339099999999999824e+01 -1.326099999999999923e+01 -6.456188000000000038e+00 -4.294918012864009649e-01
-1.558900000000000041e+01 -2.679700000000000060e+01 -1.238599999999999923e+01 -5.560232000000000063e+00 -4.282178111226554451e-01
-1.558900000000000041e+01 -2.574699999999999989e+01 -1.238599999999999923e+01 -7.040600000000000414e+00 -4.284015004163112539e-01
-1.556600000000000072e+01 -4.428199999999999648e+01 -2.418299999999999983e+01 -6.011784999999999712e+00 -2.128690035906466993e-01
-1.556400000000000006e+01 -3.432000000000000028e+01 -2.371399999999999864e+01 4.042500999999999678e+00 -4.297215716848287181e-01
-1.556300000000000061e+01 -4.088199999999999790e+01 -2.691600000000000037e+01 -9.524296000000000151e-02 -4.295963166605698547e-01
-1.555799999999999983e+01 -4.697599999999999909e+01 -8.658799999999999386e+00 5.592538999999999705e-01 -3.867668711389066760e-01
-1.555799999999999983e+01 -4.566599999999999682e+01 1.009400000000000075e+00 -1.952711000000000086e+00 -1.937433100633559890e-01
-1.555000000000000071e+01 -4.683500000000000085e+01 -1.387199999999999989e+01 1.843649999999999878e+01 -2.135249434958178261e-01
-1.553700000000000081e+01 -2.796600000000000108e+01 -1.322000000000000064e+01 -4.402238999999999791e+00 -4.283751407669201816e-01
-1.553100000000000058e+01 -4.067799999999999727e+01 -7.389599999999999724e+00 6.168433000000000277e+00 -2.352084372683151958e-01
-1.553100000000000058e+01 -4.763199999999999790e+01 -1.287400000000000055e+01 2.146631999999999874e+00 -3.855440221483333874e-01
-1.552899999999999991e+01 -2.905300000000000082e+01 -1.897700000000000031e+01 -4.242583999999999911e+00 -4.296832638562310125e-01
-1.552500000000000036e+01 -3.708700000000000330e+01 -5.786299999999999777e-01 8.643309999999999604e+00 -4.169366371547651440e-01
-1.552200000000000024e+01 -4.416199999999999903e+01 2.888100000000000112e+00 2.119164000000000048e+00 -1.960794512966387848e-01
-1.551999999999999957e+01 -4.637199999999999989e+01 -1.559800000000000075e+01 1.245424000000000042e+01 -2.139538236013151240e-01
-1.551999999999999957e+01 -4.616299999999999670e+01 -1.633399999999999963e+01 3.334903000000000173e+00 -2.141505468406080526e-01
-1.551900000000000013e+01 -4.225699999999999790e+01 -2.599500000000000099e+01 -5.249681999999999960e-01 -4.294763053341960068e-01
-1.549499999999999922e+01 -4.768900000000000006e+01 -1.002999999999999936e+01 -2.461424000000000056e+00 -3.865941615908936035e-01
-1.549300000000000033e+01 -4.532099999999999795e+01 -2.165800000000000125e+01 -1.072253000000000078e+01 -2.358457548608659526e-01
-1.549200000000000088e+01 -2.680799999999999983e+01 -3.933499999999999996e+00 1.539055999999999980e+00 -1.866573750200693493e-01
-1.549000000000000021e+01 -3.562800000000000011e+01 -6.720099999999999962e-01 -1.026760999999999946e+01 -4.168114142768571950e-01
-1.549000000000000021e+01 -3.919800000000000040e+01 1.194299999999999917e+00 1.951423000000000130e+01 -2.016413260440380328e-01
-1.548600000000000065e+01 -2.650100000000000122e+01 -1.975300000000000011e+01 5.957514999999999894e-01 -4.302570572541783989e-01
-1.548099999999999987e+01 -3.223599999999999710e+01 -7.089000000000000412e+00 7.334031000000000233e+01 -1.963255060895137682e-01
-1.547799999999999976e+01 -4.553699999999999903e+01 1.967300000000000049e+00 -7.535365000000000535e-01 -6.317604955563968505e-02
-1.547799999999999976e+01 -4.278699999999999903e+01 1.967300000000000049e+00 2.730195999999999845e+00 -1.957603785202175761e-01
-1.547199999999999953e+01 -4.732800000000000296e+01 -9.307600000000000762e+00 -3.773345000000000171e-01 -3.867098310205417944e-01
-1.547100000000000009e+01 -4.045000000000000284e+01 -8.087400000000000588e+00 1.256567999999999907e+00 -2.007491499185831141e-01
-1.547000000000000064e+01 -4.068399999999999750e+01 -9.738799999999999457e+00 -5.861425000000000107e-01 -2.007279719493117454e-01
-1.547000000000000064e+01 -4.041700000000000159e+01 -9.003000000000000114e+00 -5.603175000000000239e-01 -2.007018433076179220e-01
-1.546700000000000053e+01 -2.662500000000000000e+01 5.150999999999999801e+00 -3.842887999999999860e+00 -3.866180292610604807e-01
-1.546599999999999930e+01 -4.856799999999999784e+01 -6.353399999999999714e+00 -4.718835999999999586e+00 -3.883076656227985035e-01
-1.544999999999999929e+01 -3.429999999999999716e+01 -1.434099999999999930e+00 -1.780909000000000120e+01 -2.015287142526360764e-01
-1.544500000000000028e+01 -4.677799999999999869e+01 -1.482499999999999929e+01 2.371753000000000000e+01 -2.135658355791899832e-01
-1.544500000000000028e+01 -3.110300000000000153e+01 -7.847299999999999720e+00 3.501755000000000173e+00 -1.943179484637103938e-01
-1.543999999999999950e+01 -3.740999999999999659e+01 -2.510399999999999920e+01 -1.496077000000000012e+01 -4.296267697061237345e-01
-1.542600000000000016e+01 -4.334400000000000119e+01 -7.025100000000000122e+00 2.545141999999999793e+00 -4.158884091441069630e-01
-1.542300000000000004e+01 -2.833399999999999963e+01 -4.852199999999999847e+00 -5.666159000000000390e+00 -1.908366497645933857e-01
-1.541999999999999993e+01 -3.001200000000000045e+01 -9.129000000000000448e-01 -1.151351000000000013e+01 -2.035767516154454726e-01
-1.541799999999999926e+01 -2.760200000000000031e+01 -1.970499999999999829e+01 -2.624258999999999897e+00 -4.300287793621383470e-01
-1.541699999999999982e+01 -4.578199999999999648e+01 -1.002800000000000047e+01 8.350928999999999991e-02 -3.855575593999965855e-01
-1.541000000000000014e+01 -4.448599999999999710e+01 -1.934499999999999886e+01 -6.139676999999999829e+00 -2.153174598116295857e-01
-1.540600000000000058e+01 -4.606700000000000017e+01 -9.298899999999999721e+00 9.559453999999999452e-01 -3.860252109243151319e-01
-1.540499999999999936e+01 -2.545200000000000173e+01 -2.230999999999999872e+00 -7.133253999999999984e+00 -1.847512736997679317e-01
-1.540300000000000047e+01 -4.477000000000000313e+01 -2.254500000000000171e+01 -2.188489999999999824e+01 -2.349679093495578852e-01
-1.540300000000000047e+01 -4.456099999999999994e+01 -2.328099999999999881e+01 -6.685904999999999987e+00 -2.344159770424294464e-01
-1.540300000000000047e+01 -4.456099999999999994e+01 -1.984900000000000020e+01 -9.537715000000000387e+00 -2.153034945173625536e-01
-1.540199999999999925e+01 -4.088000000000000256e+01 1.183799999999999963e+00 1.366838000000000086e+01 -2.047224019679653451e-01
-1.538599999999999923e+01 -4.891299999999999670e+01 -1.166200000000000081e+01 -3.155149999999999899e+00 -3.866099402653315753e-01
-1.538299999999999912e+01 -3.345900000000000318e+01 -3.932300000000000129e+00 6.832245000000000124e-01 -2.004067672199742189e-01
-1.537899999999999956e+01 -2.302499999999999858e+01 -1.620200000000000173e+01 -6.847821999999999854e+00 -4.305366072570122604e-01
-1.535399999999999920e+01 -4.858899999999999864e+01 -1.242999999999999972e+01 -3.365207999999999977e+00 -3.862022434998522713e-01
-1.535399999999999920e+01 -4.858899999999999864e+01 -1.089400000000000013e+01 -4.977636000000000394e+00 -3.867515923510561060e-01
-1.534699999999999953e+01 -2.571600000000000108e+01 -1.865399999999999991e+01 2.845029999999999948e+00 -4.302334665390961099e-01
-1.534299999999999997e+01 -2.967200000000000060e+01 -4.768999999999999906e-01 -1.242281999999999975e+01 -2.048512985265261155e-01
-1.534099999999999930e+01 -4.146800000000000352e+01 -1.060800000000000054e+01 9.518679000000000556e+00 -2.009199047265913252e-01
-1.533999999999999986e+01 -2.179500000000000171e+01 -1.537899999999999956e+01 -7.048448999999999742e+00 -4.308293478089753603e-01
-1.533999999999999986e+01 -2.179500000000000171e+01 -1.443900000000000006e+01 -1.196691000000000038e+01 -4.305620463276197962e-01
-1.533900000000000041e+01 -2.628699999999999903e+01 -3.851900000000000102e+00 -1.042974000000000068e+00 -1.850930874715468188e-01
-1.533500000000000085e+01 -3.287299999999999756e+01 -2.209799999999999898e+01 -7.213354999999999961e+00 -4.296565129256521010e-01
-1.533500000000000085e+01 -4.282900000000000063e+01 -1.140600000000000058e+01 5.108438999999999730e+00 -2.011325736757296201e-01
-1.533099999999999952e+01 -2.708599999999999852e+01 -4.434400000000000119e+00 2.757857999999999837e-02 -1.875940090798561832e-01
-1.532699999999999996e+01 -3.079400000000000048e+01 -1.259399999999999942e+01 -8.120777999999999608e+00 -2.255301695280154950e-01
-1.532699999999999996e+01 -3.079400000000000048e+01 -1.172899999999999920e+01 -7.384465999999999752e+00 -2.271007849119689170e-01
-1.531099999999999994e+01 -2.956800000000000139e+01 -7.820999999999999730e+00 -1.166241999999999912e+01 -1.919726299740819875e-01
-1.529800000000000004e+01 -2.813899999999999935e+01 9.794700000000000628e-02 -2.778725000000000023e+01 -2.067895098988002667e-01
-1.529100000000000037e+01 -2.966100000000000136e+01 -1.335200000000000031e+01 -2.864675999999999778e+00 -4.282175927766268542e-01
-1.528100000000000058e+01 -2.503900000000000148e+01 -3.000999999999999890e+00 -5.874850000000000350e+00 -1.800496744219622358e-01
-1.527599999999999980e+01 -4.381199999999999761e+01 -2.494300000000000139e+01 -3.672499999999999876e+00 -2.122440605474332498e-01
-1.527200000000000024e+01 -2.833800000000000097e+01 -9.583700000000000330e+00 -8.050703999999999638e+00 -2.237408223404308283e-01
-1.527200000000000024e+01 -2.833800000000000097e+01 -8.644299999999999429e+00 -1.068568999999999924e+01 -2.266706457095811478e-01
-1.527100000000000080e+01 -2.606800000000000139e+01 4.249699999999999811e+00 -4.468792999999999793e+00 -1.683896788253980148e-01
-1.526800000000000068e+01 -3.167999999999999972e+01 -2.154400000000000048e+01 -1.364338000000000051e+01 -4.297022410993444619e-01
-1.526800000000000068e+01 -4.479500000000000171e+01 -2.071699999999999875e+01 -1.658589999999999876e+01 -2.361459428341283195e-01
-1.526600000000000001e+01 -4.949699999999999989e+01 -9.000099999999999767e-01 -1.073917999999999928e+01 -1.736697246340652145e-01
-1.526299999999999990e+01 -4.589000000000000057e+01 -8.347500000000000142e+00 1.178358000000000017e+00 -3.863891774433299009e-01
-1.526299999999999990e+01 -4.795100000000000051e+01 -8.971799999999999775e-01 -6.290835000000000177e-01 -1.730400458764587424e-01
-1.526099999999999923e+01 -3.259199999999999875e+01 -6.266700000000000159e+00 2.218235999999999919e+01 -1.977665266201089067e-01
-1.525099999999999945e+01 -2.963400000000000034e+01 -1.083500000000000085e+01 -6.249520999999999660e+00 -2.254630475483234697e-01
-1.524799999999999933e+01 -3.756000000000000227e+01 -1.248999999999999971e-01 1.317482000000000042e+01 -4.170691249556159330e-01
-1.523900000000000077e+01 -3.379500000000000171e+01 -2.286400000000000077e+01 1.701372999999999891e+01 -4.296541665293398538e-01
-1.523799999999999955e+01 -2.621300000000000097e+01 -1.147699999999999942e+00 -1.655715000000000003e+01 -1.958410136438054061e-01
-1.523499999999999943e+01 -2.391600000000000037e+01 -1.263499999999999979e+01 -7.280419000000000196e+00 -4.289027884439525762e-01
-1.523399999999999999e+01 -2.866600000000000037e+01 -1.327800000000000047e+01 -4.798989999999999867e+00 -4.282649951073908556e-01
-1.523199999999999932e+01 -2.567200000000000060e+01 -1.796099999999999852e+01 1.220720999999999989e+01 -4.300978231038312671e-01
-1.523199999999999932e+01 -2.546300000000000097e+01 -1.722500000000000142e+01 1.081760000000000055e+00 -4.299960432233846386e-01
-1.523099999999999987e+01 -3.032000000000000028e+01 -1.927700000000000102e+01 -2.389386999999999972e+01 -4.295264358503182445e-01
-1.522700000000000031e+01 -5.072699999999999676e+01 -2.662700000000000067e+00 -4.458032000000000217e+00 -1.721629200267256465e-01
-1.522700000000000031e+01 -5.072699999999999676e+01 -1.723300000000000054e+00 -4.059822999999999737e+00 -1.731519671637480884e-01
-1.522300000000000075e+01 -4.404699999999999704e+01 -7.449300000000000033e+00 1.605553000000000008e+00 -4.057830982683244270e-01
-1.522199999999999953e+01 -3.638700000000000045e+01 -6.369200000000000417e-01 -7.785001000000000282e+00 -4.168130148594336726e-01
-1.521599999999999930e+01 -2.537500000000000000e+01 -3.775999999999999801e+00 -4.490228000000000108e+00 -1.810533311618621188e-01
-1.521499999999999986e+01 -2.488200000000000145e+01 -1.261700000000000088e+01 -7.074783000000000044e+00 -4.286089868823022009e-01
-1.521400000000000041e+01 -4.477199999999999847e+01 -1.122899999999999920e+01 1.503443000000000085e+00 -2.144983661597139046e-01
-1.521299999999999919e+01 -2.751899999999999835e+01 5.150999999999999801e+00 -4.298224000000000267e+00 -3.833654129582222958e-01
-1.521299999999999919e+01 -2.573100000000000165e+01 5.150999999999999801e+00 -2.814877000000000073e+00 -1.547530883464435791e-01
-1.521100000000000030e+01 -3.398299999999999699e+01 -2.168299999999999894e+00 -1.294588000000000072e+01 -2.015798062207287411e-01
-1.521100000000000030e+01 -3.372899999999999920e+01 -3.061999999999999833e+00 -1.158388000000000062e+01 -2.011217563345445714e-01
-1.521000000000000085e+01 -4.532699999999999818e+01 -7.505300000000000082e+00 4.616246000000000294e+00 -3.864563251395337629e-01
-1.520700000000000074e+01 -4.565299999999999869e+01 -1.722500000000000142e+01 1.390209000000000028e-01 -2.142883603611104582e-01
-1.520400000000000063e+01 -4.961099999999999710e+01 -5.161800000000000388e+00 -8.998143000000000669e+00 -1.694704297230009149e-01
-1.519599999999999973e+01 -2.471600000000000108e+01 -2.230999999999999872e+00 -6.025960000000000427e+00 -1.809282074156135234e-01
-1.519500000000000028e+01 -3.517000000000000171e+01 -2.378500000000000014e+01 -2.310611000000000193e+00 -4.296387131136113480e-01
-1.519400000000000084e+01 -4.173199999999999932e+01 -2.684499999999999886e+01 -1.346097000000000099e+00 -4.295412198649474211e-01
-1.519400000000000084e+01 -4.003199999999999648e+01 -2.684499999999999886e+01 -5.244618999999999670e-02 -4.296127430792577861e-01
-1.518900000000000006e+01 -2.989799999999999969e+01 -4.135399999999999743e+00 -6.320674000000000348e+00 -1.963241211686861665e-01
-1.518800000000000061e+01 -2.266400000000000148e+01 -1.293200000000000038e+01 -7.684313999999999645e+00 -4.295067416083516720e-01
-1.518200000000000038e+01 -3.823700000000000188e+01 4.517700000000000049e-01 1.151187000000000005e+01 -1.979080639831618249e-01
-1.517800000000000082e+01 -4.735799999999999699e+01 -1.367800000000000082e+01 1.243801999999999963e-01 -3.852641600466085725e-01
-1.516099999999999959e+01 -3.486800000000000210e+01 -7.352899999999999991e-01 -2.052599000000000018e+01 -4.166368541498157718e-01
-1.515600000000000058e+01 -2.735800000000000054e+01 -1.191699999999999982e+01 -5.714222000000000357e+00 -4.278534751953645410e-01
-1.515300000000000047e+01 -4.501200000000000045e+01 2.817299999999999915e+00 -1.394770999999999928e-01 -6.296156399830038497e-02
-1.515300000000000047e+01 -4.331199999999999761e+01 2.817299999999999915e+00 2.958932000000000229e-01 -1.956174526079537679e-01
-1.515000000000000036e+01 -3.788000000000000256e+01 -2.586400000000000077e+01 -2.005241999999999969e+00 -4.296463374737780616e-01
-1.514799999999999969e+01 -4.235399999999999920e+01 -6.857099999999999973e+00 -3.999684000000000017e-01 -4.157955030137602259e-01
-1.514199999999999946e+01 -2.714999999999999858e+01 4.301000000000000156e+00 -4.524132999999999960e+00 -1.998093275478795561e-01
-1.514199999999999946e+01 -2.714999999999999858e+01 6.001000000000000334e+00 -3.417955000000000076e+00 -3.822821925162734891e-01
-1.514199999999999946e+01 -2.610000000000000142e+01 6.001000000000000334e+00 4.366493000000000180e+00 -3.860309927109862316e-01
-1.514100000000000001e+01 -2.564699999999999847e+01 -1.347900000000000098e+00 -1.037303999999999959e+01 -1.926726746657133893e-01
-1.511599999999999966e+01 -2.567800000000000082e+01 -1.963800000000000168e+01 1.021454999999999913e+01 -4.303625318573139902e-01
-1.511299999999999955e+01 -3.653099999999999881e+01 -2.429899999999999949e+01 -9.583512999999999948e+00 -4.295907323654219456e-01
-1.511100000000000065e+01 -2.378399999999999892e+01 -1.623699999999999832e+01 -1.066147999999999918e+01 -4.302185272204771538e-01
-1.510800000000000054e+01 -2.627199999999999847e+01 -1.178999999999999915e+01 -4.736517000000000088e+00 -4.279115008068263282e-01
-1.510599999999999987e+01 -2.219099999999999895e+01 -1.360899999999999999e+01 -3.261399000000000115e+01 -4.299918942503661023e-01
-1.509900000000000020e+01 -4.116899999999999693e+01 -6.993000000000000327e+00 1.193928999999999974e+01 -2.349409602584810186e-01
-1.509600000000000009e+01 -2.875900000000000034e+01 -1.042399999999999949e+01 -7.029124000000000372e+00 -2.234061593680260194e-01
-1.508000000000000007e+01 -4.670100000000000051e+01 -4.008999999999999786e-01 8.778816000000000841e+00 -1.936370306097000282e-01
-1.508000000000000007e+01 -4.166400000000000148e+01 1.233600000000000030e+00 1.157207000000000008e+01 -1.945446201394867014e-01
-1.507799999999999940e+01 -4.588799999999999812e+01 -1.656099999999999994e+01 4.843458000000000041e+00 -2.139756828530231803e-01
-1.507499999999999929e+01 -2.872500000000000142e+01 -7.817400000000000126e+00 -2.234431000000000012e+01 -1.908030961325779262e-01
-1.507099999999999973e+01 -3.610099999999999909e+01 -2.381500000000000128e+01 -3.431042000000000147e+00 -4.295700279834805957e-01
-1.506400000000000006e+01 -4.007000000000000028e+01 1.114100000000000090e+00 1.804804999999999993e+01 -2.029552023430272745e-01
-1.506400000000000006e+01 -2.751800000000000068e+01 -5.134400000000000297e+00 -6.109634999999999927e+00 -1.891349220281612342e-01
-1.506099999999999994e+01 -4.964999999999999858e+01 -1.166200000000000081e+01 -7.443912000000000084e+00 -3.870412851816164568e-01
-1.505000000000000071e+01 -2.226500000000000057e+01 -1.613899999999999935e+01 -1.298808999999999969e+01 -4.307286221480879362e-01
-1.504499999999999993e+01 -2.709700000000000131e+01 -2.048799999999999955e+01 -2.404684000000000044e+00 -4.301871013364917395e-01
-1.504499999999999993e+01 -2.604700000000000060e+01 -2.048799999999999955e+01 -1.574600999999999917e+00 -4.303907306885227935e-01
-1.504299999999999926e+01 -3.032700000000000173e+01 -7.785899999999999821e+00 -1.026158999999999999e+01 -1.937703117046384593e-01
-1.503999999999999915e+01 -3.164499999999999957e+01 -7.420700000000000074e+00 1.791394000000000020e+01 -1.959708292983665667e-01
-1.503400000000000070e+01 -4.862800000000000011e+01 -7.659600000000000186e+00 -3.929850000000000065e+00 -3.882595020142463604e-01
-1.503200000000000003e+01 -4.352900000000000347e+01 -1.146400000000000041e+01 1.761997999999999953e+00 -2.360720969487194731e-01
-1.502999999999999936e+01 -4.729699999999999704e+01 -1.434600000000000009e+01 2.602325000000000088e+01 -3.850848334925294214e-01
-1.502500000000000036e+01 -4.518800000000000239e+01 -2.147400000000000020e+01 -1.274150000000000027e+01 -2.148397074002560692e-01
-1.500200000000000067e+01 -2.951999999999999957e+01 -1.912300000000000111e+01 -8.871271999999999380e+00 -4.295785413759944937e-01
-1.500099999999999945e+01 -4.218800000000000239e+01 1.654400000000000093e+00 6.358355000000000423e+00 -1.945529837816425967e-01
-1.500000000000000000e+01 -3.262800000000000011e+01 -5.275999999999999801e+00 -1.666384000000000087e+00 -1.992439111014863706e-01
-1.499799999999999933e+01 -4.873799999999999955e+01 -8.649200000000000221e-01 -1.580178000000000083e+01 -1.731198060555776130e-01
-1.499799999999999933e+01 -4.932099999999999795e+01 -1.242200000000000060e+01 -3.658186999999999856e+00 -3.866445530014015475e-01
-1.499799999999999933e+01 -4.932099999999999795e+01 -1.090199999999999925e+01 -6.755466000000000193e+00 -3.872038679776697578e-01
-1.498000000000000043e+01 -3.024099999999999966e+01 -1.093099999999999961e+00 -1.824092999999999876e+01 -2.044671855722093867e-01
-1.497799999999999976e+01 -3.121000000000000085e+01 -2.078399999999999892e+01 -8.983200999999999325e+00 -4.296258709237008588e-01
-1.497600000000000087e+01 -4.896500000000000341e+01 -6.785999999999999588e+00 -6.413963999999999999e+00 -3.885416516770135442e-01
-1.497300000000000075e+01 -4.915500000000000114e+01 -5.923300000000000232e+00 -1.064500999999999920e+01 -1.684871383368796161e-01
-1.497300000000000075e+01 -2.690700000000000003e+01 -1.173600000000000065e+01 -2.886353999999999864e+00 -4.277785303680893270e-01
-1.497000000000000064e+01 -4.526100000000000279e+01 -2.214900000000000091e+01 -8.107450000000000045e+00 -2.356032767255145099e-01
-1.495800000000000018e+01 -2.666600000000000037e+01 -4.138899999999999801e-01 -3.075696999999999903e+01 -2.040861440936831417e-01
-1.495599999999999952e+01 -2.518100000000000094e+01 -1.273400000000000087e+00 -1.097240000000000038e+01 -1.922066039737571896e-01
-1.495400000000000063e+01 -4.806000000000000227e+01 -9.451299999999999812e+00 -3.170396000000000214e+00 -3.872176485133021484e-01
-1.495100000000000051e+01 -2.832199999999999918e+01 -1.933500000000000085e+01 4.828174999999999883e+00 -4.297865806938210298e-01
-1.494200000000000017e+01 -2.382199999999999918e+01 -2.230999999999999872e+00 2.612690999999999764e-01 -1.749750999730664558e-01
-1.493999999999999950e+01 -4.797699999999999676e+01 -8.418499999999999872e+00 -3.367450999999999972e+00 -3.876481920016980331e-01
-1.493900000000000006e+01 -3.243999999999999773e+01 -2.160699999999999932e+01 -1.875043000000000148e+01 -4.296051028709759190e-01
-1.493699999999999939e+01 -5.025699999999999790e+01 -9.632899999999999796e-01 -7.720655999999999963e+00 -1.735602547499791037e-01
-1.492600000000000016e+01 -4.523700000000000188e+01 -1.047600000000000087e+01 1.082726000000000077e+00 -3.852251562545244146e-01
-1.492399999999999949e+01 -2.792099999999999937e+01 -5.634599999999999831e+00 -8.478744000000000725e+00 -1.902627386715736724e-01
-1.492300000000000004e+01 -4.119400000000000261e+01 -1.015600000000000058e+01 2.234258000000000077e+00 -2.011163817085026562e-01
-1.492200000000000060e+01 -3.081700000000000017e+01 -2.216499999999999915e+00 -1.360551000000000066e+01 -2.025426756791837979e-01
-1.491399999999999970e+01 -2.694999999999999929e+01 3.872300000000000075e+00 -6.202357000000000120e+00 -1.732292672406649525e-01
-1.491300000000000026e+01 -4.998199999999999932e+01 -4.341700000000000337e+00 -1.237537999999999982e+01 -1.699901328991504368e-01
-1.491099999999999959e+01 -4.407200000000000273e+01 -1.128700000000000081e+01 2.091340999999999894e+00 -2.147738334038595820e-01
