4.670900000000000318e+01 4.139499699999999649e+01 8.809500099999999634e+01 -1.248914000000000080e+01 -1.978570811922057970e+00
4.670900000000000318e+01 4.160408799999999729e+01 8.735897799999999336e+01 -1.573019000000000034e+01 -1.930037614565339954e+00
4.671089899999999773e+01 3.209686700000000315e+01 8.969599900000000048e+01 -1.182905000000000051e+01 -2.080478576308480321e+00
4.671766999999999825e+01 3.779300299999999879e+01 6.641067499999999768e+01 3.506504000000000065e+00 -5.423108279605093340e-01
4.671963900000000081e+01 4.160203200000000123e+01 6.829466200000000242e+01 2.049926999999999921e+01 -9.197208690311491075e-02
4.671963900000000081e+01 4.307407800000000009e+01 6.829466200000000242e+01 6.197492999999999697e+00 1.527945831263712417e+00
4.672899600000000220e+01 4.488473900000000327e+01 6.710072300000000212e+01 4.459481000000000250e+00 -1.778498829116899715e+00
4.672997999999999763e+01 2.446002199999999860e+01 7.877800000000000580e+01 -2.550748000000000104e+01 -1.173774560353793461e+00
4.673405100000000090e+01 2.896439399999999864e+01 9.393930799999999692e+01 -2.322754000000000119e+01 9.181738460892622244e-01
4.673405100000000090e+01 2.917348300000000094e+01 9.467533099999999990e+01 -7.010735000000000383e+00 -1.108206219679221727e+00
4.673469500000000210e+01 4.352327700000000021e+01 6.789827699999999311e+01 5.015957000000000221e+00 1.422613900459774428e+00
4.673599999999999710e+01 2.904667299999999841e+01 9.654666899999999430e+01 3.321874999999999911e+00 -1.565135213215764542e+00
4.674056999999999817e+01 3.157481200000000143e+01 8.996998600000000579e+01 -1.251041000000000025e+01 4.548177840595222787e-01
4.674787899999999752e+01 3.625199899999999786e+01 9.709822099999999523e+01 -3.008980999999999995e+01 -1.704022857295748317e+00
4.675000000000000000e+01 4.864423399999999731e+01 7.761531100000000549e+01 -9.543988000000000582e+00 -4.113463293888465211e-01
4.675492899999999707e+01 3.513072199999999867e+01 7.402009599999999523e+01 3.753900000000000148e+01 1.944664559685532312e+00
4.675689299999999804e+01 4.188674199999999814e+01 6.748899799999999516e+01 7.829509999999999970e+00 1.507758559180196467e-01
4.676007500000000050e+01 2.924181000000000097e+01 9.574021899999999619e+01 -4.073274999999999757e+00 -1.337957486020773690e+00
4.677228900000000067e+01 3.827772900000000078e+01 7.302732100000000059e+01 2.381015999999999977e+01 1.815675672398558982e+00
4.677899899999999889e+01 4.436099999999999710e+01 6.502600099999999372e+01 3.626463000000000214e+00 -1.215484662986246356e+00
4.677937699999999666e+01 3.082623500000000050e+01 8.563839699999999766e+01 1.196582999999999952e+00 -4.853666176487761441e-01
4.677974300000000341e+01 3.042200100000000162e+01 9.851810500000000559e+01 2.376348000000000127e+01 -1.775936556277085021e+00
4.678296999999999883e+01 3.498504299999999745e+01 9.632196799999999826e+01 -3.792424000000000017e+00 -1.636182663174314822e+00
4.678399699999999939e+01 2.810229500000000158e+01 9.173529800000000023e+01 -3.273293999999999926e+01 -8.295033091860066765e-01
4.678994800000000254e+01 2.967468300000000170e+01 8.535195899999999369e+01 8.836358999999999853e+00 -7.841567430725864263e-01
4.679451000000000249e+01 2.412411499999999975e+01 7.800299800000000516e+01 5.614475999999999800e+00 -1.248719928964855175e+00
4.680800200000000189e+01 4.194200099999999765e+01 6.645999899999999627e+01 1.466339999999999932e+01 9.753274912923775020e-01
4.681233999999999895e+01 3.507361600000000124e+01 7.493981200000000342e+01 3.119520999999999944e+01 1.700840667842509424e+00
4.681256499999999932e+01 3.576560200000000123e+01 9.451549500000000137e+01 3.584321999999999786e+00 -1.524088692679811397e+00
4.681637599999999821e+01 4.415823699999999974e+01 8.147239700000000084e+01 -3.128881999999999941e+00 -3.677588883143696030e+00
4.681637599999999821e+01 4.601776499999999714e+01 8.147239700000000084e+01 3.157824999999999882e+00 -9.421569246048562274e-01
4.682100700000000160e+01 2.799232100000000045e+01 9.268678300000000547e+01 -4.970654999999999824e+00 -8.741824065494796514e-01
4.682932999999999879e+01 3.183345399999999970e+01 9.772601299999999469e+01 1.188358999999999943e-01 -1.505474141257320708e+00
4.683007800000000032e+01 3.274178299999999808e+01 9.738821400000000494e+01 -2.013989000000000118e+01 -1.655442280540895039e+00
4.683849299999999971e+01 3.593299900000000235e+01 7.313728299999999649e+01 2.107645000000000124e+01 1.051453906671315774e+00
4.684351000000000198e+01 3.713299899999999809e+01 8.767627699999999891e+01 -2.201383999999999830e+01 -7.680199208846667513e-01
4.684734300000000218e+01 2.808591499999999996e+01 8.532817099999999755e+01 4.737863000000000113e+01 -7.292279308435879459e-01
4.685398899999999855e+01 3.552732799999999713e+01 7.566254399999999691e+01 3.020727000000000118e+01 1.260621858698854680e+00
4.685670499999999805e+01 3.316229599999999778e+01 8.893599700000000041e+01 -1.057747999999999955e+01 -2.267051791664776328e+00
4.685670499999999805e+01 3.410170399999999802e+01 8.893599700000000041e+01 -1.513691000000000031e+01 -2.432153410902282431e+00
4.685670499999999805e+01 3.410170399999999802e+01 9.045600100000000054e+01 -3.802062999999999704e+01 -2.405300853411111994e+00
4.685821899999999829e+01 2.446868900000000124e+01 7.709256000000000597e+01 5.582607000000000319e+00 -1.310154824427985254e+00
4.686518900000000087e+01 2.899747299999999939e+01 9.761389200000000699e+01 1.465602999999999945e+01 -1.756133639678508107e+00
4.687432900000000302e+01 3.307100299999999748e+01 6.972267200000000287e+01 7.648761999999999617e+00 -4.109505824734404067e-01
4.688070700000000102e+01 2.754229199999999977e+01 8.768199900000000468e+01 -6.112830999999999904e+00 3.253627629628007001e-01
4.688070700000000102e+01 2.754229199999999977e+01 8.920200300000000482e+01 -6.479161999999999644e+00 2.478538163135366734e-01
4.688070700000000102e+01 2.848170700000000011e+01 8.768199900000000468e+01 -1.887770000000000081e+01 4.212157455459705213e-01
4.688070700000000102e+01 2.848170700000000011e+01 8.920200300000000482e+01 -2.275611999999999924e+01 4.885969467184672621e-01
4.688070700000000102e+01 2.934695200000000170e+01 9.060199699999999723e+01 -1.088785999999999987e+01 -2.448106704681662082e-01
4.689099900000000076e+01 2.728800999999999988e+01 7.160888699999999574e+01 1.481706999999999885e-01 -2.210525709406121031e+00
4.689099900000000076e+01 2.858099899999999849e+01 7.088800000000000523e+01 1.862764000000000086e+00 -2.004409112787173708e+00
4.689733100000000121e+01 3.687295900000000159e+01 6.722250400000000070e+01 6.527969999999999828e+00 -8.688370373710966321e-01
4.690054299999999898e+01 4.707421099999999825e+01 6.645200300000000482e+01 4.085373999999999839e+00 5.084141179425192419e-02
4.691385999999999967e+01 3.109999099999999927e+01 7.233195499999999356e+01 1.911346999999999907e+00 -1.554815153095211011e+00
4.691481799999999680e+01 2.994007300000000171e+01 7.152949499999999716e+01 -6.955785999999999802e+00 -1.829838580146477822e+00
4.691608000000000089e+01 4.229175599999999946e+01 8.623859400000000619e+01 -4.471077000000000190e+00 -3.137051774148878369e+00
4.691674799999999834e+01 4.520834700000000339e+01 6.649267600000000300e+01 5.314259999999999984e+00 -1.682375525602820554e+00
4.691999100000000311e+01 3.283288999999999902e+01 8.969599900000000048e+01 -1.209381999999999913e+01 -2.062008385303417679e+00
4.691999100000000311e+01 3.443110999999999677e+01 8.969599900000000048e+01 -2.126164999999999949e+01 -2.345610640714395068e+00
4.692042500000000160e+01 3.385780299999999698e+01 9.388083600000000217e+01 -2.194575999999999993e+01 -1.230332216937670697e+00
4.692150900000000036e+01 2.621051800000000043e+01 8.000910899999999515e+01 6.576289000000000051e+00 5.585422645599075198e-01
4.692150900000000036e+01 2.641960699999999918e+01 8.074513199999999813e+01 2.646770000000000067e+00 3.118769992735075380e-01
4.692533099999999990e+01 3.588367099999999965e+01 9.631000500000000386e+01 8.435557999999999668e-01 -1.653044519867863382e+00
4.692533099999999990e+01 3.693433000000000277e+01 9.460999300000000289e+01 1.961972999999999967e+00 4.173776797491419166e-01
4.692533099999999990e+01 3.693433000000000277e+01 9.631000500000000386e+01 -1.055109000000000047e-01 4.055316285942398569e-01
4.692551399999999973e+01 3.671739199999999670e+01 7.644277200000000505e+01 2.507025000000000148e+01 7.879812832571471137e-01
4.692808899999999994e+01 3.350693100000000157e+01 9.174104300000000478e+01 -9.592245999999999384e+00 -2.404763986362006278e+00
4.692873000000000161e+01 4.233805499999999711e+01 6.829466200000000242e+01 1.467553999999999981e+01 1.950611204474107963e+00
4.692932900000000274e+01 3.428489299999999673e+01 9.474066899999999691e+01 -1.814322999999999908e+01 -1.390316694377635054e+00
4.694119299999999839e+01 3.435591500000000309e+01 8.566675600000000657e+01 2.902223999999999915e+00 1.647591835416389650e+00
4.694399299999999897e+01 2.721288699999999849e+01 8.844200100000000475e+01 -1.234920999999999935e+01 3.057943235290868089e-01
4.694399299999999897e+01 2.881111100000000036e+01 8.844200100000000475e+01 -2.503435999999999950e+01 6.897652695558699198e-01
4.695510500000000320e+01 3.020100000000000051e+01 9.083589899999999773e+01 -1.720484000000000080e+01 1.526357257316108273e-01
4.696488599999999991e+01 3.515700100000000106e+01 6.895349099999999964e+01 8.501652999999999238e+00 -9.571194069923258940e-01
4.696598399999999884e+01 4.262276500000000112e+01 6.748899799999999516e+01 9.440118999999999261e+00 5.896451664933796133e-01
4.697016899999999850e+01 4.883982799999999713e+01 6.905778499999999553e+01 1.816932999999999909e+00 -2.485641768902701054e-01
4.697138199999999841e+01 3.417150900000000036e+01 9.651524399999999559e+01 -3.688271000000000299e+01 -1.598508610942858787e+00
4.697503700000000038e+01 4.490494900000000200e+01 6.579267900000000679e+01 2.314478999999999842e-02 -1.430976766083413620e+00
4.697684100000000029e+01 2.867560599999999837e+01 9.092459900000000061e+01 -1.085745000000000005e+01 -5.330157993201405375e-01
4.697827900000000056e+01 3.252949100000000016e+01 9.039599599999999668e+01 -1.241948000000000008e+01 -2.173200833004040877e+00
4.698625899999999689e+01 3.965000200000000063e+01 6.540489200000000380e+01 4.535847999999999658e+00 -5.024751780974998083e-02
4.698713699999999704e+01 4.770713400000000348e+01 7.950995600000000252e+01 -1.116769999999999996e+01 -1.507394394864455034e+00
4.699113499999999988e+01 3.305350899999999825e+01 9.056560500000000502e+01 -3.144978000000000051e+01 -2.254741868958682449e+00
4.699433100000000252e+01 4.117594900000000280e+01 8.303051800000000071e+01 -1.020940000000000047e+01 -1.965696689749052650e+00
4.699610500000000002e+01 3.730274200000000207e+01 9.545999899999999627e+01 1.008863000000000021e+01 3.276224954400751010e-01
4.699801300000000026e+01 4.162828400000000073e+01 8.429116100000000245e+01 2.606145999999999852e+00 -2.982070486852617552e+00
4.700090800000000257e+01 3.628962700000000297e+01 6.819520599999999888e+01 3.568611000000000200e+00 -1.176839390313516143e+00
4.700099900000000019e+01 2.689446999999999832e+01 7.251316799999999319e+01 2.012882999999999978e+00 -2.083892735983237099e+00
4.700283799999999701e+01 4.311489900000000119e+01 6.717913799999999469e+01 7.096873000000000431e+00 3.475489019574613536e-01
4.700360899999999731e+01 4.313914100000000218e+01 6.576000200000000007e+01 1.225833000000000084e+01 4.217551866158315010e-01
4.700360899999999731e+01 4.400439099999999826e+01 6.576000200000000007e+01 6.078854999999999897e+00 -1.157458130744168034e+00
4.700360899999999731e+01 4.400439099999999826e+01 6.715999600000000669e+01 6.322453999999999574e+00 1.415844322867885863e+00
4.700785400000000180e+01 3.363599399999999662e+01 9.269899700000000564e+01 -6.835288000000000252e+00 -2.529825145393441943e+00
4.701048999999999722e+01 4.354611599999999783e+01 6.502600099999999372e+01 1.635763000000000034e+01 2.510623053680606787e-01
4.701048999999999722e+01 4.517588400000000348e+01 6.502600099999999372e+01 -1.338620000000000088e-01 -1.373151941643985907e+00
4.701356100000000282e+01 3.799942800000000176e+01 7.608580800000000011e+01 2.172251999999999938e+01 1.713244487482880718e+00
4.702099599999999668e+01 2.765402399999999972e+01 8.447697399999999845e+01 3.107253000000000043e+01 -9.828816899411516594e-01
4.702299899999999866e+01 4.872410599999999903e+01 6.728425599999999918e+01 7.791856000000000337e-01 1.123359696028026350e-01
4.702299899999999866e+01 4.897799700000000200e+01 6.817800099999999475e+01 4.164853000000000027e-01 -4.504961970944162952e-02
4.702302600000000155e+01 4.948421499999999895e+01 7.261860699999999724e+01 -8.543447000000000457e+00 2.628613743851623052e+00
4.702893100000000004e+01 3.572686000000000206e+01 8.717820700000000045e+01 -7.642892999999999937e+00 -8.407959092323732397e-01
4.702913699999999864e+01 4.437995099999999837e+01 6.643035899999999572e+01 3.636836000000000180e+00 -1.379006089964805559e+00
4.703057100000000190e+01 3.826996199999999959e+01 6.581172899999999970e+01 3.398185999999999929e+00 -3.547788907443566453e-01
4.703966499999999940e+01 3.871034999999999826e+01 7.372731799999999680e+01 3.201135000000000019e+01 1.675315804233942218e+00
4.703966499999999940e+01 3.871034999999999826e+01 7.459256700000000251e+01 2.489815000000000111e+01 1.861331381275745933e+00
4.704634099999999819e+01 4.903971899999999806e+01 7.466892199999999491e+01 -4.924788999999999639e+00 1.799999999999999600e+00
4.705766700000000213e+01 4.146204399999999879e+01 8.219171099999999797e+01 -1.666903999999999897e+01 -2.789008510850407685e+00
4.706088299999999691e+01 2.890800099999999873e+01 8.531651300000000049e+01 5.075862000000000052e+01 -8.419776305737477484e-01
4.706189299999999776e+01 4.283574300000000079e+01 6.645999899999999627e+01 1.442736999999999981e+01 5.820612876725864693e-01
4.706348400000000254e+01 4.917470600000000047e+01 7.184567300000000500e+01 -6.860199999999999632e-01 2.509579710470112968e+00
4.706373200000000168e+01 4.612200899999999848e+01 6.632565300000000263e+01 4.160857000000000028e+00 -1.847253132788557073e+00
4.706613899999999973e+01 3.130237800000000092e+01 9.076197799999999916e+01 -7.006269999999999776e+00 4.770536421033210184e-01
4.706613899999999973e+01 3.216762500000000102e+01 9.076197799999999916e+01 -1.226853000000000016e+01 -2.137793255501329703e+00
4.707043500000000336e+01 2.648891400000000118e+01 8.145362099999999828e+01 1.302467999999999959e+00 2.345381962213524338e-02
4.707043500000000336e+01 2.648891400000000118e+01 8.240238200000000290e+01 5.235140000000000349e-01 -2.782722559644246751e-01
4.707502000000000209e+01 4.388202700000000078e+01 6.425099899999999309e+01 4.989666999999999852e+00 1.414752653081909062e-01
4.707502000000000209e+01 4.483997300000000052e+01 6.425099899999999309e+01 3.881651999999999880e+00 -1.216936933549822353e+00
4.707568700000000206e+01 3.757772800000000046e+01 7.296903199999999856e+01 1.811564999999999870e+01 1.664228873365663386e+00
4.708813500000000118e+01 2.596811500000000095e+01 7.955577099999999291e+01 1.497333000000000069e+01 6.891236649241736512e-01
4.708869599999999878e+01 4.932920800000000128e+01 7.378410300000000177e+01 -6.501452999999999705e+00 1.800000000000000044e+00
4.709227800000000030e+01 3.686562299999999937e+01 8.716013300000000186e+01 -4.818936999999999671e+01 -7.978911698240472861e-01
4.710586899999999844e+01 3.550037400000000076e+01 7.383728000000000691e+01 2.890102999999999867e+01 1.608884369364295575e+00
4.711005000000000109e+01 4.801167300000000182e+01 7.874351500000000215e+01 -1.418275000000000041e+01 9.281462598442001555e-02
4.711099999999999710e+01 2.636290899999999837e+01 7.431001999999999441e+01 3.134497999999999784e+00 -1.885863023241530989e+00
4.711099999999999710e+01 2.657199900000000170e+01 7.357399700000000564e+01 3.078551000000000037e+00 -2.015093101527685171e+00
4.712281000000000120e+01 2.486888499999999880e+01 7.800299800000000516e+01 -1.374513999999999925e+01 -1.188346258985820025e+00
4.713799999999999812e+01 2.651472300000000004e+01 8.303051000000000670e+01 2.457617000000000135e-02 -4.417269703106305734e-01
4.713799999999999812e+01 2.746348800000000168e+01 8.397927900000000534e+01 6.186746000000000301e+00 -9.197849013533632156e-01
4.714189100000000110e+01 3.663299899999999809e+01 7.307899500000000614e+01 1.453180000000000049e+01 5.269296927916788942e-01
4.714699600000000146e+01 3.363199999999999790e+01 8.969599900000000048e+01 -4.050083000000000055e+01 -2.216722529423699850e+00
4.714737699999999876e+01 3.463770300000000191e+01 9.575700399999999490e+01 -1.976895999999999987e+01 -1.533522842838932698e+00
4.717099799999999732e+01 2.801199899999999943e+01 8.844200100000000475e+01 -2.751735000000000042e+01 4.913632070613410674e-01
4.717370199999999869e+01 2.569900099999999910e+01 7.569329100000000210e+01 1.605679000000000134e-01 -1.527545255354681553e+00
4.719049100000000152e+01 4.140113399999999899e+01 6.541760299999999972e+01 5.062941999999999609e+00 1.782524304264098136e-01
4.719899699999999854e+01 3.254567300000000074e+01 7.057267000000000223e+01 6.586392000000000024e+00 5.466435498461451603e-01
4.720100000000000051e+01 3.526158099999999962e+01 8.649130200000000457e+01 2.011587000000000014e+00 -8.785958079760515238e-01
4.721200199999999825e+01 3.175600100000000126e+01 8.583400000000000318e+01 -7.473093000000000097e-02 -3.357038539117541132e-01
4.721200199999999825e+01 3.338576499999999925e+01 8.537101699999999482e+01 6.715075000000000349e-01 1.222044768449685570e+00
4.721711700000000178e+01 2.845492000000000132e+01 9.348992900000000361e+01 -5.976354999999999862e+00 6.711999089130342711e-01
4.721725800000000106e+01 3.039998999999999896e+01 7.227366600000000574e+01 -4.841860999999999748e+00 -1.780056210831354013e+00
4.722437999999999647e+01 3.241545899999999847e+01 7.157403600000000665e+01 1.028214000000000006e+01 -1.385523207354834252e+00
4.723327599999999649e+01 4.218246500000000054e+01 8.510813899999999421e+01 1.988939000000000012e+00 -3.038389489748980932e+00
4.723432900000000245e+01 4.054499799999999965e+01 8.947032900000000666e+01 1.773830999999999936e+00 -2.085220690666528043e+00
4.723900199999999927e+01 4.871459999999999724e+01 6.970840499999999906e+01 4.686850999999999878e+00 -3.806649097995440933e-01
4.724300000000000210e+01 3.719689600000000240e+01 6.689225799999999822e+01 8.013134000000000867e+00 -7.297182971274369656e-01
4.724583799999999911e+01 3.552732100000000059e+01 7.445272099999999682e+01 2.933220999999999989e+01 1.374450385236184680e+00
4.724900099999999981e+01 4.345823699999999690e+01 8.120501699999999801e+01 -7.259693000000000396e+00 -2.625757164290313916e+00
4.724900099999999981e+01 4.508800099999999844e+01 8.166799899999999468e+01 -5.954679000000000499e-01 -3.500000000000000444e+00
4.724999600000000299e+01 3.640899999999999892e+01 9.545999899999999627e+01 2.468767000000000067e+01 -1.595028989375044892e+00
4.725112899999999883e+01 3.561135099999999909e+01 7.510495000000000232e+01 2.917568999999999946e+01 1.156922718587223287e+00
4.725851399999999813e+01 3.262088399999999666e+01 9.126560200000000123e+01 -1.474637000000000064e+01 -2.229726146958517230e+00
4.726133000000000095e+01 2.989667100000000133e+01 9.792200499999999863e+01 2.104093999999999909e+01 -1.670059163904708877e+00
4.726133000000000095e+01 3.094733000000000089e+01 9.792200499999999863e+01 2.145504999999999995e+01 -1.574282606209653101e+00
4.726522099999999682e+01 4.272604799999999869e+01 6.499079899999999554e+01 9.107765000000000555e+00 5.529830023699816577e-01
4.726828400000000130e+01 3.585700200000000137e+01 6.889520299999999509e+01 1.178190000000000026e+01 -1.362346450489090754e+00
4.727098500000000314e+01 4.357176599999999667e+01 6.645999899999999627e+01 8.872832999999999970e+00 -1.031656183542599470e+00
4.727600100000000083e+01 2.843172500000000014e+01 9.185649100000000544e+01 -1.309839000000000020e+01 -5.920344244227553343e-01
4.727719900000000308e+01 4.047802699999999732e+01 6.536389900000000353e+01 5.505997999999999948e+00 1.116738117518190215e-01
4.727949900000000127e+01 4.872451800000000333e+01 7.643496700000000033e+01 1.434954999999999981e-01 -8.728183730336306345e-01
4.728337100000000248e+01 3.224413700000000205e+01 9.719960000000000377e+01 -4.396300000000000097e+01 -1.583034004133659467e+00
4.728970300000000293e+01 3.346799899999999894e+01 9.698671000000000220e+01 -4.209210000000000207e+01 -1.592992182169371773e+00
4.730499300000000318e+01 3.200144999999999840e+01 7.228479000000000099e+01 4.168014999999999581e+00 -1.412379719435355785e+00
4.731426199999999938e+01 3.383551800000000043e+01 6.958900500000000022e+01 7.413605999999999696e+00 -6.228771511192182642e-01
4.731939299999999804e+01 2.973249099999999956e+01 9.532086200000000531e+01 -4.486652999999999558e+00 -1.130934124999529722e+00
4.732211300000000165e+01 3.628476700000000221e+01 7.595185899999999890e+01 2.298612999999999928e+01 7.193776383526155893e-01
4.733110800000000040e+01 4.568938399999999689e+01 6.562565600000000643e+01 -1.094255999999999895e+00 -1.548984395661826108e+00
4.733210799999999807e+01 2.952825699999999998e+01 9.707199900000000525e+01 9.741823999999999373e+00 -1.546523950112920431e+00
4.733686099999999897e+01 4.660715100000000177e+01 8.091097999999999502e+01 1.891620999999999997e+00 -1.167545269780803308e+00
4.734111800000000159e+01 4.878665199999999658e+01 7.055100299999999436e+01 1.684882999999999909e+00 2.322874152995563435e+00
4.734133099999999672e+01 2.562866999999999962e+01 7.870500900000000399e+01 2.942493999999999943e+00 -1.069907577894532169e+00
4.734542100000000175e+01 3.321392800000000278e+01 9.374748200000000509e+01 -1.318345000000000056e+01 -1.114387181075707778e+00
4.735467100000000329e+01 3.880000299999999669e+01 6.547566999999999382e+01 4.193964000000000247e+00 -2.076315692261869461e-01
4.735788300000000106e+01 3.682734700000000316e+01 6.771500399999999331e+01 1.182572000000000045e+01 -9.839279139646975869e-01
4.736070300000000088e+01 2.782100099999999898e+01 7.117829100000000153e+01 5.924973000000000045e-01 -2.127073864440923945e+00
4.736070300000000088e+01 2.934099799999999902e+01 7.117829100000000153e+01 -7.915318000000000076e+00 -1.941251924336574675e+00
4.736388399999999876e+01 4.690365599999999802e+01 8.003900099999999895e+01 1.319918999999999976e+01 -1.368460556684732543e+00
4.737310000000000088e+01 2.981920099999999962e+01 9.624397299999999689e+01 -2.090292999999999957e+00 -1.333675330812445603e+00
4.738282800000000350e+01 3.355110899999999674e+01 9.446038799999999469e+01 -1.714784999999999826e+01 -1.240928931462540463e+00
4.739899799999999885e+01 3.790661599999999964e+01 8.827250700000000450e+01 -4.991107999999999656e+00 -7.356647002382400435e-01
4.740397600000000011e+01 3.467802799999999763e+01 6.949700199999999484e+01 8.866472999999999161e+00 -8.459522327950076415e-01
4.740537599999999685e+01 2.703086499999999859e+01 8.327928199999999492e+01 -4.145302000000000042e+00 -6.855414413488588599e-01
4.741899899999999946e+01 3.311032900000000012e+01 9.217366800000000637e+01 -6.812090999999999674e+00 -2.375838918585831738e+00
4.743145799999999923e+01 4.305965799999999888e+01 6.447129099999999369e+01 2.730655000000000143e+01 4.058287887692957341e-01
4.744737599999999844e+01 3.771298600000000079e+01 6.635385100000000591e+01 6.162135000000000140e+00 -5.214451549877656689e-01
4.745000100000000032e+01 4.848799499999999796e+01 7.725000000000000000e+01 -1.279082999999999970e+01 -5.820517613310224325e-01
4.745035200000000231e+01 3.883561699999999917e+01 8.941636699999999394e+01 -2.854465999999999948e+00 -7.211867166618574077e-01
4.745303299999999780e+01 2.939533600000000035e+01 9.114363899999999319e+01 -6.678289999999999615e+00 -1.741131866883721679e-01
4.745303299999999780e+01 3.100666400000000067e+01 9.114363899999999319e+01 -3.710577999999999932e+00 3.959733754255224114e-01
4.745695099999999655e+01 3.296304700000000310e+01 7.264800300000000277e+01 1.062434000000000012e+01 6.622996425658795872e-01
4.746274199999999865e+01 3.173500100000000046e+01 9.125289200000000278e+01 -3.552296999999999816e+00 -2.130882465852625973e+00
4.746399699999999910e+01 2.522929399999999944e+01 7.645329300000000217e+01 1.543020000000000058e+00 -1.384406749965374273e+00
4.746997499999999803e+01 3.068216100000000068e+01 9.622602100000000291e+01 -5.353348000000000440e+00 -1.229873931962844669e+00
4.747229000000000099e+01 3.801035300000000206e+01 7.345994600000000219e+01 3.296739999999999782e+01 3.685851939254396026e+00
4.748888000000000176e+01 3.643299900000000235e+01 8.666921999999999571e+01 1.665971000000000091e+00 -8.387199467867667568e-01
4.749876400000000132e+01 3.323939500000000180e+01 9.313162199999999302e+01 -8.377344000000000790e+00 -2.494006106099066145e+00
4.749997700000000123e+01 2.842902399999999830e+01 8.477300300000000277e+01 7.866025999999999385e+01 -1.125628551780534448e+00
4.750538999999999845e+01 3.710536199999999951e+01 7.351492299999999602e+01 9.913289999999999935e+00 3.604797703279197130e+00
4.750698500000000024e+01 2.892393500000000017e+01 9.424881700000000251e+01 -4.596447999999999645e+00 9.915938317258976564e-01
4.750988799999999657e+01 2.892337200000000053e+01 9.130856300000000658e+01 -6.330092999999999748e+00 -3.617450479587669410e-01
4.751298899999999747e+01 3.842775000000000318e+01 7.533762400000000525e+01 2.328464999999999918e+01 1.823603289355013812e+00
4.751411399999999929e+01 4.436099999999999710e+01 6.370749299999999948e+01 4.011384999999999756e+00 -1.054873914428981374e+00
4.751466400000000334e+01 3.821163899999999813e+01 8.870403299999999547e+01 -5.165865000000000151e+00 -7.291002049522334882e-01
4.751466400000000334e+01 4.117835999999999785e+01 8.870403299999999547e+01 -6.037340999999999624e+00 -2.038568441647926388e+00
4.752178200000000174e+01 3.837075000000000102e+01 7.431616200000000561e+01 2.789144999999999897e+01 1.705003016119606363e+00
4.752490199999999732e+01 3.756562000000000268e+01 8.742750499999999647e+01 -1.075961000000000034e+01 -7.595796256373061883e-01
4.752679400000000243e+01 3.558962600000000265e+01 6.942109700000000316e+01 1.668338999999999928e+01 2.119790367876436488e+00
4.753849000000000302e+01 3.620037500000000108e+01 7.356990799999999808e+01 1.664464999999999861e+01 5.546177181244631438e-01
4.754832799999999793e+01 4.812799799999999806e+01 6.680267299999999864e+01 2.315612999999999921e+00 2.531513891503188729e-01
4.754901100000000014e+01 3.729512799999999828e+01 7.609590900000000602e+01 2.429898999999999987e+01 2.124915776527150246e+00
4.755362699999999876e+01 4.202995299999999901e+01 8.169232900000000086e+01 -6.501932000000000045e+00 -2.680455839877018409e+00
4.755400099999999952e+01 4.561497500000000116e+01 6.454702799999999741e+01 2.131497999999999848e+01 -1.339727004707252034e+00
4.756306500000000170e+01 2.516918400000000133e+01 7.739201400000000319e+01 -2.524312000000000111e+00 -1.247974027776624251e+00
4.757875800000000055e+01 3.095894399999999891e+01 7.283991199999999822e+01 2.147927999999999837e+00 -1.676434955109902480e+00
4.757999800000000334e+01 3.393770599999999860e+01 9.528730000000000189e+01 -2.822244999999999848e+01 -1.393911876494084101e+00
4.757999800000000334e+01 3.393770599999999860e+01 9.622670700000000465e+01 -3.689621999999999957e+01 -1.510854549557420823e+00
4.758599900000000105e+01 3.042200100000000162e+01 9.707199900000000525e+01 3.560210999999999792e+00 -1.434595833386684172e+00
4.760632700000000028e+01 2.639900000000000091e+01 7.456066900000000430e+01 4.761531999999999876e+00 -1.838319150849344386e+00
4.761300299999999908e+01 4.982070900000000080e+01 7.218529499999999643e+01 -2.132454000000000072e+00 2.624152993199024841e+00
4.761300299999999908e+01 4.982070900000000080e+01 7.312470199999999920e+01 -7.818742000000000303e+00 1.800000000000000044e+00
4.761425799999999953e+01 4.194200099999999765e+01 6.501389299999999594e+01 1.122784000000000049e+01 8.279323331998845736e-01
4.761910999999999916e+01 3.270799999999999841e+01 9.704999499999999557e+01 -4.995438000000000045e+01 -1.551493608727042783e+00
4.762239799999999690e+01 3.202560799999999830e+01 7.274395800000000634e+01 4.541215000000000224e+00 -1.437867256720845255e+00
4.762525899999999979e+01 3.639472599999999858e+01 6.841500100000000373e+01 5.700840999999999603e+00 -1.212377619175702970e+00
4.764131900000000286e+01 3.021562399999999826e+01 9.506786300000000267e+01 -1.100511999999999979e+01 -1.011601676910729442e+00
4.764462699999999984e+01 3.408576599999999956e+01 8.563839699999999766e+01 1.292536999999999914e+01 1.528303994267012245e+00
4.765099699999999672e+01 2.735129399999999933e+01 7.193829300000000160e+01 7.510999999999999899e-01 -2.263046617265331406e+00
4.765099699999999672e+01 2.981070499999999868e+01 7.193829300000000160e+01 -2.029421999999999926e+01 -1.934578822725353531e+00
4.765232799999999713e+01 4.729537200000000041e+01 7.917970300000000350e+01 -1.093099999999999916e+01 4.133712752973595084e-01
4.765313700000000097e+01 3.139032699999999920e+01 9.715716600000000369e+01 -7.335926999999999865e+00 -1.362105808810686547e+00
4.765824899999999786e+01 2.806065200000000104e+01 8.406468200000000479e+01 1.263526000000000060e+01 -1.143358256992699440e+00
4.766604199999999736e+01 3.369906999999999897e+01 7.264800300000000277e+01 2.374621000000000137e+01 2.061746280922887475e+00
4.766660699999999906e+01 4.913651300000000077e+01 7.078610999999999365e+01 1.370373000000000063e+00 2.411266389212135763e+00
4.766941099999999665e+01 3.595246099999999956e+01 7.447111499999999751e+01 2.570586000000000126e+01 9.582962249049022940e-01
4.767555999999999727e+01 2.950222199999999972e+01 8.482167800000000568e+01 7.825093999999999994e+00 -1.198514621081476994e+00
4.767906599999999884e+01 3.141818400000000011e+01 9.622602100000000291e+01 -1.487337999999999916e+01 -1.387949336372962250e+00
4.769010899999999964e+01 2.858099899999999849e+01 7.111500499999999647e+01 -1.032712000000000074e+01 -2.050024481597709336e+00
4.770100000000000051e+01 4.198910500000000212e+01 8.473025499999999965e+01 4.477185999999999666e+00 -3.005709966958240553e+00
4.770100000000000051e+01 4.198910500000000212e+01 8.651774600000000248e+01 -1.780198000000000036e+01 -3.165281393231144325e+00
4.770100000000000051e+01 4.224299599999999799e+01 8.562400100000000691e+01 -1.944180000000000019e+00 -3.076913849382963750e+00
4.771029300000000006e+01 3.457405099999999720e+01 8.596289799999999559e+01 1.308929000000000009e+01 -8.968756967390024704e-01
4.772011599999999731e+01 2.651672599999999846e+01 7.354037499999999739e+01 2.985561999999999827e+00 -1.991507569895155205e+00
4.772066499999999678e+01 2.620276300000000091e+01 7.531022600000000011e+01 2.009921999999999986e+00 -1.652511447360650587e+00
4.772432700000000239e+01 3.253042200000000150e+01 7.334799999999999898e+01 7.327385999999999733e+00 4.875037200106687174e-01
4.772432700000000239e+01 3.339567199999999758e+01 7.024799299999999391e+01 1.111930000000000085e+01 1.262780819542672184e+00
4.772432700000000239e+01 3.339567199999999758e+01 7.194800600000000657e+01 3.022186999999999912e+01 3.341651210445296671e-01
4.772432700000000239e+01 3.339567199999999758e+01 7.334799999999999898e+01 1.679975999999999914e+01 2.087055858597911318e+00
4.773644999999999783e+01 4.896270799999999923e+01 7.485723099999999874e+01 -3.269607999999999848e+00 1.800000000000000044e+00
4.773733099999999752e+01 3.090600200000000086e+01 8.550933100000000309e+01 1.324916999999999945e+01 -6.785771919025347376e-01
4.773734999999999928e+01 3.111478400000000022e+01 9.552602400000000671e+01 -4.815185999999999744e+00 -1.252315974599004900e+00
4.773774300000000181e+01 3.020100000000000051e+01 9.118089299999999753e+01 -6.417619000000000185e+00 1.244363349288073739e-01
4.775766800000000245e+01 4.152032899999999671e+01 8.249510999999999683e+01 -6.954412999999999734e+00 -2.701470172071545495e+00
4.776043700000000314e+01 2.663330500000000001e+01 7.884207200000000171e+01 1.865390999999999977e+01 1.088428779596627649e+00
4.776043700000000314e+01 2.663330500000000001e+01 7.983792099999999436e+01 1.055428999999999995e+01 4.527279817625388114e-01
4.776133699999999749e+01 4.146326799999999935e+01 8.795905299999999727e+01 -1.574192000000000036e+01 -2.012962980585784489e+00
4.776133699999999749e+01 4.167235900000000015e+01 8.722302999999999429e+01 -6.091552000000000078e+00 -1.975903124298070246e+00
4.777072499999999877e+01 4.874280499999999705e+01 7.583812700000000007e+01 -2.800295999999999896e+00 1.800000000000000044e+00
4.777432999999999907e+01 4.283800099999999844e+01 8.134332999999999458e+01 -8.693934999999999746e+00 -2.610772613683324472e+00
4.777432999999999907e+01 4.423800299999999908e+01 8.134332999999999458e+01 1.629254999999999898e+00 -2.210022589403312310e+00
4.777432999999999907e+01 4.593800000000000239e+01 8.134332999999999458e+01 1.252768999999999977e+01 -1.190766301112035741e+00
4.779227800000000315e+01 3.713299899999999809e+01 8.672750899999999774e+01 -1.290304000000000073e+01 -8.040311240184442321e-01
4.779510499999999951e+01 3.302725999999999829e+01 7.109799999999999898e+01 1.340267000000000053e+01 3.210000357323984921e-01
4.780900199999999955e+01 4.116488600000000275e+01 6.503534700000000157e+01 8.456146000000000384e+00 1.429999115261886278e-01
4.782299799999999834e+01 3.424512099999999748e+01 7.019654800000000705e+01 9.607777999999999707e+00 1.013969550166264000e+00
4.782299799999999834e+01 3.511037100000000066e+01 7.019654800000000705e+01 1.539234000000000080e+01 1.890694302155194073e+00
4.782516499999999837e+01 4.937858200000000153e+01 7.409056099999999390e+01 -8.493054000000000769e+00 1.800000000000000488e+00
4.783632999999999669e+01 3.281732900000000086e+01 9.331485700000000350e+01 -8.789545999999999637e+00 -2.441262562608166320e+00
4.783800099999999844e+01 2.634599899999999906e+01 8.192800099999999475e+01 -2.084252999999999911e+00 -1.656132746452590454e-01
4.783800099999999844e+01 2.657300899999999899e+01 8.272711200000000531e+01 -4.706107999999999958e-01 -4.293692022384572038e-01
4.785002500000000225e+01 4.358600200000000058e+01 6.377202599999999677e+01 7.206718000000000401e+00 -8.810267352536127472e-01
4.785002500000000225e+01 4.513599800000000073e+01 6.377202599999999677e+01 7.407746000000000386e+00 -1.157651172628105796e+00
4.785533099999999962e+01 3.018279599999999974e+01 7.272355699999999956e+01 -5.064804999999999779e+00 -1.914823934681671558e+00
4.785768099999999947e+01 2.603614400000000018e+01 7.782644700000000171e+01 -5.268375999999999948e+00 -1.144103266501276917e+00
4.785981799999999708e+01 3.261260200000000253e+01 8.559206399999999348e+01 -4.662400999999999907e-01 9.282378286781859389e-01
4.786744300000000152e+01 2.646838400000000036e+01 8.111186999999999614e+01 1.467764000000000069e+00 5.345628074167301652e-02
4.787011700000000047e+01 3.276266499999999837e+01 9.420098900000000697e+01 -8.440326999999999913e+00 -1.125819385550785423e+00
4.787299699999999802e+01 4.865332800000000191e+01 6.765267199999999548e+01 6.365526000000000018e+00 1.554185061550863445e-01
4.787366500000000258e+01 4.672416299999999723e+01 6.605665600000000381e+01 6.641732000000000191e+00 -1.780770289237598947e+00
4.788000100000000003e+01 3.820389600000000030e+01 6.595725299999999436e+01 3.345352000000000103e+00 -3.531380426865597943e-01
4.788000100000000003e+01 3.965000200000000063e+01 6.515100099999999372e+01 5.173381000000000007e+00 -2.808224675572828025e-02
4.789532499999999970e+01 4.880433699999999675e+01 6.864612599999999532e+01 1.025511999999999979e+01 -4.197059307730295619e-02
4.790307200000000165e+01 4.158672299999999922e+01 8.390590699999999913e+01 4.042659999999999698e+00 -2.927792638719591167e+00
4.791666399999999726e+01 2.678863700000000136e+01 7.296496600000000399e+01 3.502034000000000091e+00 -2.046548624863486765e+00
4.791899099999999834e+01 2.886136799999999880e+01 8.407345599999999308e+01 3.413343999999999934e+00 -1.383958883639732518e+00
4.791970400000000296e+01 4.772799700000000200e+01 7.847970599999999308e+01 -4.969456999999999880e+01 3.405479622205578871e-02
4.793542899999999918e+01 4.738366299999999853e+01 6.663635299999999972e+01 5.003934000000000104e+00 3.639858902595610179e-01
4.793899199999999894e+01 3.144104600000000005e+01 9.499812300000000675e+01 -4.976071000000000133e+00 -1.162352696757817272e+00
4.793900299999999959e+01 4.898197900000000260e+01 7.014102900000000318e+01 9.314564999999999650e-02 -2.899330294871775848e-01
4.794432799999999872e+01 3.226033000000000328e+01 9.184899099999999805e+01 -4.320420000000000371e+00 -2.250719855618776410e+00
4.794561000000000206e+01 3.686250299999999669e+01 7.420500199999999325e+01 2.428541999999999845e+01 3.493632775918921407e+00
4.794561000000000206e+01 3.686250299999999669e+01 7.560499599999999987e+01 2.183512999999999948e+01 3.386154395842362330e+00
4.794561000000000206e+01 3.772775299999999987e+01 7.420500199999999325e+01 2.684572000000000003e+01 3.566959554675272592e+00
4.794561000000000206e+01 3.772775299999999987e+01 7.560499599999999987e+01 2.011133999999999844e+01 3.450372878407740096e+00
4.794642600000000243e+01 2.757490200000000158e+01 8.362482500000000130e+01 -1.590681000000000012e+01 -9.268520647827412917e-01
4.794731900000000024e+01 4.887287100000000351e+01 6.934003400000000283e+01 3.324520999999999837e+00 -1.734362143516556820e-01
4.795941899999999691e+01 3.628962700000000297e+01 6.915372499999999434e+01 1.325244000000000000e+01 -1.411229193979191665e+00
4.797536099999999948e+01 3.139156699999999844e+01 7.333082600000000184e+01 2.138663000000000203e+00 -1.616733397969355668e+00
4.797600200000000115e+01 2.826300000000000168e+01 9.295900000000000318e+01 -5.746672000000000224e+00 -2.328913595120955193e+00
4.797600200000000115e+01 2.849001099999999909e+01 9.215988900000000683e+01 -8.408943000000000723e+00 -4.867105832737926296e-01
4.797600200000000115e+01 2.849001099999999909e+01 9.375811000000000206e+01 -1.476262999999999970e+01 7.781088162392912899e-01
4.799698999999999671e+01 2.565988700000000122e+01 7.692299699999999518e+01 -2.152320000000000011e+00 -1.316145346133046568e+00
4.800389899999999699e+01 3.655910500000000241e+01 7.490499900000000366e+01 2.696733000000000047e+01 3.406745771906275255e+00
4.800389899999999699e+01 3.803115100000000126e+01 7.490499900000000366e+01 2.550451999999999941e+01 3.521162107951998355e+00
4.801085700000000145e+01 4.237462599999999924e+01 6.452298000000000400e+01 8.650112000000000023e+00 6.258301824586505191e-01
4.801510600000000295e+01 3.262874200000000258e+01 9.269899700000000564e+01 -5.974052000000000362e+00 -2.360791853928218220e+00
4.803208200000000261e+01 2.592806799999999967e+01 7.616411600000000703e+01 -6.008051000000000030e+00 -1.457368893016324884e+00
4.803791799999999768e+01 2.978300099999999873e+01 9.134104899999999816e+01 -1.030371000000000059e+01 -3.243400381271878408e-02
4.803791799999999768e+01 2.978300099999999873e+01 9.457694999999999652e+01 -3.854485999999999990e+01 -2.520331953716883344e+00
4.804418199999999928e+01 3.224468199999999740e+01 9.368299899999999525e+01 -1.014823999999999948e+01 -1.050539101304929668e+00
4.804899600000000248e+01 3.392100099999999685e+01 7.109799999999999898e+01 2.994660999999999973e+01 1.106004829793542088e+00
4.804970600000000047e+01 3.223829299999999876e+01 9.651700599999999497e+01 -3.052655000000000030e+01 -1.444231206934860179e+00
4.804970600000000047e+01 3.317770399999999853e+01 9.499700199999999484e+01 -2.034761999999999915e+01 -1.279019430397865920e+00
4.804970600000000047e+01 3.317770399999999853e+01 9.651700599999999497e+01 -4.366378999999999877e+01 -1.482280131922520505e+00
4.805788400000000138e+01 3.688563500000000062e+01 6.801840199999999470e+01 9.242414000000000129e+00 -1.037218971021754532e+00
4.807339499999999788e+01 3.130237800000000092e+01 9.176922600000000330e+01 -1.852651000000000048e+00 -2.003278208663446414e+00
4.809299899999999894e+01 3.726767000000000252e+01 6.726067399999999452e+01 1.723308000000000106e+01 -7.736213584023521328e-01
4.809788499999999800e+01 3.032260899999999992e+01 8.482351699999999539e+01 5.916097999999999857e+00 -1.120815620227364917e+00
4.809899899999999917e+01 3.830989499999999737e+01 8.875174699999999461e+01 -4.368884000000000434e+00 -7.363962706358844201e-01
4.809899899999999917e+01 3.975600099999999770e+01 8.955799899999999525e+01 -1.852351000000000081e+00 -7.207423139688426961e-01
4.809899899999999917e+01 4.120210600000000056e+01 8.875174699999999461e+01 -5.577719000000000094e+00 -2.047578677614037890e+00
4.809899899999999917e+01 4.646333299999999866e+01 8.049333199999999522e+01 1.112825999999999915e+01 -1.438261488005597277e+00
4.810574299999999681e+01 3.175600100000000126e+01 8.558010899999999310e+01 5.047028000000000070e+00 -5.412839486866063421e-01
4.811299100000000095e+01 3.190888800000000103e+01 9.575700399999999490e+01 -1.710763000000000034e+01 -1.313722275021668162e+00
4.811299100000000095e+01 3.350711100000000187e+01 9.575700399999999490e+01 -3.364213000000000164e+01 -1.405663871437474954e+00
4.812070500000000095e+01 2.811129199999999884e+01 7.164799499999999455e+01 -1.059704999999999941e+01 -2.167642862487590527e+00
4.812070500000000095e+01 2.905070699999999917e+01 7.164799499999999455e+01 -1.668372000000000099e+01 -2.055168793993332077e+00
4.812093000000000131e+01 3.296304700000000310e+01 7.383891300000000513e+01 7.251780000000000115e+00 1.890837582579388165e+00
4.814274199999999837e+01 4.508800099999999844e+01 8.141410799999999881e+01 2.243937999999999988e+01 -3.500000000000000000e+00
4.814546200000000198e+01 3.334132400000000018e+01 8.558109299999999564e+01 1.578831000000000095e+00 1.211243759612257831e+00
4.815644100000000094e+01 3.795262100000000061e+01 8.794905099999999720e+01 -4.564000000000000057e+00 -7.486748603663535562e-01
4.815695199999999687e+01 3.409567299999999790e+01 7.308062700000000689e+01 1.944590000000000174e+01 1.628050274051635826e+00
4.815968300000000113e+01 3.222622299999999740e+01 9.495999100000000226e+01 -1.315503999999999962e+01 -1.201403186265606937e+00
4.816465000000000174e+01 3.485725000000000051e+01 7.098311599999999544e+01 2.217986000000000146e+01 7.203532059217157002e-01
4.817786399999999958e+01 3.508655900000000116e+01 8.648361199999999371e+01 1.012968000000000046e+01 -8.719152435690075142e-01
4.817876400000000103e+01 4.659239199999999670e+01 7.953537799999999436e+01 5.825916000000000317e+00 6.717136885410611713e-01
4.820442599999999800e+01 3.437475200000000086e+01 7.209094199999999830e+01 2.348620000000000019e+01 9.522162375779874566e-01
4.820636700000000019e+01 3.100842300000000051e+01 9.429812599999999634e+01 -1.728297999999999845e+01 -1.095192233130906523e+00
4.820695500000000067e+01 4.234709200000000351e+01 8.173992900000000361e+01 -1.219405999999999990e+00 -2.248863727221440012e+00
4.820695500000000067e+01 4.353800199999999876e+01 8.107595100000000343e+01 -2.800403000000000198e+00 -2.251923923559358443e+00
4.820888500000000221e+01 4.829608199999999840e+01 7.778092999999999790e+01 -3.826364000000000232e+01 -3.451549998478807280e-01
4.821298999999999779e+01 3.729512799999999828e+01 7.490499900000000366e+01 2.581833999999999918e+01 3.450649700193758385e+00
4.821756700000000251e+01 4.855417299999999869e+01 7.698835800000000518e+01 6.765626000000000140e+00 -6.631676692032379972e-01
4.822110700000000350e+01 2.715425700000000120e+01 7.933999599999999930e+01 4.146683000000000163e+01 7.360929396199237251e-01
4.824120700000000284e+01 3.583368699999999762e+01 6.989144899999999438e+01 1.974249999999999972e+01 1.866057415538358910e+00
4.824508999999999759e+01 3.140930900000000037e+01 9.386132800000000032e+01 -1.472270999999999930e+01 -2.308492275504376856e+00
4.825134700000000265e+01 2.702990499999999940e+01 7.840944700000000012e+01 6.833039999999999559e+00 1.106100366421291614e+00
4.825349400000000344e+01 3.379734799999999950e+01 7.363236999999999455e+01 1.673270000000000124e+01 1.590810142925437320e+00
4.825797699999999679e+01 3.665113399999999899e+01 8.637899000000000171e+01 7.003097999999999601e+00 -8.388231324515534881e-01
4.826399200000000178e+01 5.010349999999999682e+01 7.154862199999999461e+01 -3.333579999999999877e-01 2.637804265508115975e+00
4.828266099999999739e+01 2.944906200000000140e+01 7.240264899999999670e+01 -1.751745000000000019e+01 -2.075480018330442711e+00
4.829017300000000290e+01 2.672063999999999950e+01 7.769056700000000149e+01 -1.185871999999999993e+01 -1.177205788696719768e+00
4.829399899999999946e+01 3.778376000000000090e+01 8.713727599999999995e+01 -6.667923000000000044e+00 -7.681932375838361748e-01
4.829891599999999841e+01 3.062400099999999981e+01 7.329904899999999657e+01 9.414071000000000522e-01 -1.841230098768598777e+00
4.830628999999999706e+01 4.623325299999999771e+01 6.566005699999999479e+01 1.267862000000000045e+01 -1.535053078731868359e+00
4.830738399999999899e+01 2.719498799999999861e+01 8.009451300000000629e+01 2.391228999999999871e+01 -1.586941546013178161e+00
4.830770499999999856e+01 2.710600099999999912e+01 8.315770700000000204e+01 -1.440882999999999914e+00 -6.786550108780196044e-01
4.831559399999999727e+01 2.842874499999999927e+01 8.358254200000000367e+01 -2.190987000000000151e+01 -1.195191422952143867e+00
4.831966800000000006e+01 4.972450299999999856e+01 7.067629999999999768e+01 5.466194999999999915e+00 -1.068864593194670254e-01
4.832851399999999842e+01 2.987811500000000109e+01 8.446039600000000291e+01 6.077509000000000050e+00 7.243704413704371570e-02
4.832899900000000315e+01 4.298996400000000051e+01 6.411196900000000198e+01 1.317210000000000036e+01 -7.046219775129999308e-01
4.832899900000000315e+01 4.436099999999999710e+01 6.347600200000000115e+01 2.185382000000000158e+00 -9.694856147471569985e-01
4.832899900000000315e+01 4.567950799999999845e+01 6.421112100000000567e+01 9.875428999999999746e+01 -1.231737688684488852e+00
4.832899900000000315e+01 4.600780900000000173e+01 6.495588700000000415e+01 1.036466000000000065e+02 -1.371973832334880461e+00
4.833921800000000246e+01 5.022220599999999990e+01 7.266507699999999659e+01 -3.257368999999999915e+01 2.755223128694614054e+00
4.833999599999999930e+01 3.270799999999999841e+01 9.575700399999999490e+01 -1.643087999999999838e+01 -1.353302242122776500e+00
4.834632899999999722e+01 3.220089300000000065e+01 7.390066500000000360e+01 3.637869999999999937e+00 -2.952846028241845833e+00
4.834895699999999863e+01 4.204093900000000161e+01 8.276095599999999308e+01 -2.464427999999999841e+00 -2.518206619460860551e+00
4.837237499999999812e+01 3.182605399999999918e+01 9.269899700000000564e+01 -6.552356999999999765e+00 -2.128125365013505021e+00
4.837300100000000214e+01 4.988399100000000175e+01 7.345410900000000254e+01 -2.767620000000000147e+01 1.800000000000000266e+00
4.837877300000000247e+01 2.668615199999999987e+01 7.667996999999999730e+01 -2.756695999999999813e+00 -1.373535891196064229e+00
4.838754300000000086e+01 2.642540699999999987e+01 7.587925699999999551e+01 2.375669999999999948e+00 -1.545943738820401148e+00
4.839398200000000116e+01 4.198332200000000114e+01 8.347328199999999754e+01 -5.199518999999999558e+00 -2.643925685321537156e+00
4.840082900000000166e+01 2.702288799999999824e+01 8.063139300000000276e+01 -6.981336999999999959e-02 4.488771635728790177e-02
4.840100100000000083e+01 4.204739399999999705e+01 8.442685699999999827e+01 -9.977559999999999762e-01 -2.958053018541286772e+00
4.840100100000000083e+01 4.239238699999999938e+01 8.520949600000000146e+01 -9.466679000000000066e-01 -3.013582158004135536e+00
4.840533099999999678e+01 3.880000299999999669e+01 6.547566999999999382e+01 4.372950999999999588e+00 -1.997627547617712995e-01
4.842837500000000261e+01 4.791137700000000166e+01 6.735799400000000503e+01 3.948862999999999790e+00 3.320666253973824644e-01
4.843645099999999815e+01 4.902099599999999668e+01 7.516062900000000013e+01 2.631081000000000003e+00 1.799999999999999822e+00
4.844570499999999669e+01 2.902300299999999922e+01 9.172929399999999589e+01 -1.599128999999999934e+01 -2.884113186145746410e-01
4.844570499999999669e+01 2.902300299999999922e+01 9.418870499999999879e+01 -4.929131000000000284e+01 -2.470752888312108819e+00
4.844613999999999976e+01 4.702501699999999829e+01 7.883538099999999815e+01 -1.464761000000000024e+01 3.119764943716824002e-01
