5.325679000000000229e+01 4.995203800000000172e+01 8.699503300000000650e+01 7.331194999999999595e+01 -1.047910979606669235e+00
5.326683400000000290e+01 4.315612800000000249e+01 6.639137300000000153e+01 6.179679000000000144e+00 -1.303157993712668716e+00
5.326687199999999933e+01 3.677236899999999764e+01 6.908116900000000271e+01 2.346799999999999997e+00 -2.632429247341851131e+00
5.326767000000000252e+01 4.160300099999999901e+01 8.570032500000000653e+01 1.650720000000000098e+01 7.476745054907557586e-01
5.327114100000000008e+01 3.862393999999999750e+01 6.735500299999999640e+01 -8.397192999999999685e+00 -1.290820130952849976e+00
5.328051800000000071e+01 4.182211300000000165e+01 6.423448899999999639e+01 1.399618000000000073e+01 -3.766559353348035710e-01
5.329215200000000152e+01 4.465414400000000228e+01 6.223893400000000042e+01 -8.340374999999999872e-01 -7.167099131546238455e-01
5.330325700000000211e+01 4.363100099999999770e+01 8.659610700000000350e+01 1.953408999999999907e+01 -1.237818044627046810e+00
5.330590399999999818e+01 5.456806900000000127e+01 8.560572100000000262e+01 6.628038000000000096e+00 -8.458970750843738395e-01
5.330599999999999739e+01 5.859499000000000279e+01 7.668910999999999945e+01 -1.116838000000000086e+01 -1.579487386422367301e+00
5.330599999999999739e+01 5.882199500000000114e+01 7.588999900000000309e+01 -1.959272999999999954e+01 -1.500934481624448535e+00
5.330901000000000067e+01 4.590689100000000167e+01 8.781800099999999532e+01 -6.161438000000000415e+00 -2.048851862886678976e+00
5.331918300000000244e+01 4.448378799999999700e+01 6.818312799999999640e+01 4.683125000000000426e+00 4.045574363113197403e-01
5.332871999999999701e+01 3.825862500000000210e+01 6.651986700000000496e+01 -8.156354000000000104e-01 -1.186818250961792387e+00
5.332925800000000294e+01 4.073599999999999710e+01 6.410689499999999441e+01 1.165634000000000015e+01 -3.701478127868957912e+00
5.333211500000000171e+01 3.808299999999999841e+01 7.087351200000000517e+01 7.738482999999999556e+00 -3.385634967593764144e-01
5.333488799999999941e+01 5.635599899999999707e+01 8.525499000000000649e+01 -2.426823999999999870e+01 -2.284617997305889325e+00
5.335999699999999990e+01 5.749533100000000019e+01 7.817941999999999325e+01 -2.032465000000000188e+00 -1.829670681045354907e+00
5.335999699999999990e+01 5.749533100000000019e+01 7.904466999999999643e+01 1.314657000000000053e+01 -1.905394902993052142e+00
5.336000800000000055e+01 4.592111200000000082e+01 6.304800000000000182e+01 -2.773359999999999825e+00 -1.174572999092696968e+00
5.337200200000000194e+01 3.682902500000000146e+01 7.003397400000000061e+01 1.255835000000000035e+00 -1.952277809340231263e-01
5.337200200000000194e+01 3.933697500000000247e+01 7.003397400000000061e+01 5.069259999999999877e+01 -1.988069214741690960e+00
5.337229200000000162e+01 4.623629799999999790e+01 8.857800299999999538e+01 -3.145551999999999904e+00 -2.137485204999362676e+00
5.337229200000000162e+01 4.717570500000000067e+01 8.857800299999999538e+01 -1.424122000000000021e+01 -2.371676091804694408e+00
5.337300100000000214e+01 3.936067200000000099e+01 6.502767199999999548e+01 6.393621999999999694e+00 -3.713271507553660644e+00
5.337400099999999981e+01 5.758570900000000137e+01 8.349229400000000112e+01 -8.423913000000000650e+00 -1.731187765445375781e+00
5.337400099999999981e+01 5.758570900000000137e+01 8.443170200000000136e+01 -1.227307000000000059e+01 -1.639472798460604341e+00
5.337848699999999980e+01 5.372211800000000181e+01 7.284760300000000655e+01 1.481119999999999992e+00 -2.363677153495063354e+00
5.338325900000000246e+01 5.609700000000000131e+01 7.261089300000000435e+01 4.752523000000000053e+00 -2.584771788899255185e+00
5.338700899999999905e+01 3.702689000000000163e+01 6.735500299999999640e+01 3.320349999999999913e+00 -1.400005547215164681e+00
5.339569900000000047e+01 3.691998300000000199e+01 6.840100099999999372e+01 3.119918999999999887e+00 -1.575951924007152449e+00
5.340539900000000273e+01 4.215640299999999741e+01 6.373999799999999993e+01 1.107868999999999993e+01 -3.278910943757790686e-01
5.340802399999999750e+01 4.046960099999999727e+01 6.927568800000000238e+01 5.544618999999999964e+00 -1.847801517516285186e+00
5.342326400000000319e+01 4.412274599999999936e+01 6.721249400000000662e+01 3.021901000000000170e+00 -1.763996586979367454e+00
5.342329399999999850e+01 4.465229800000000182e+01 6.380800200000000189e+01 1.115655000000000063e+00 -1.053266813096464638e+00
5.342329399999999850e+01 4.559170499999999748e+01 6.228800199999999876e+01 -6.588813000000000031e-01 -9.500809688015382504e-01
5.342329399999999850e+01 4.559170499999999748e+01 6.380800200000000189e+01 -9.669067000000000078e+00 -1.291938871773714359e+00
5.342504100000000022e+01 5.536121399999999682e+01 8.542970300000000350e+01 2.724588999999999928e+00 -2.497711290468904277e+00
5.343398299999999779e+01 4.473302499999999782e+01 8.710284400000000460e+01 2.850941000000000169e+00 -1.584117429448006042e+00
5.344337099999999907e+01 4.201016599999999812e+01 6.968812599999999691e+01 5.083732000000000362e+00 -2.069207713216111078e+00
5.344459200000000010e+01 4.806129099999999710e+01 7.867845199999999295e+01 3.812965000000000160e+00 -2.480415865116715857e+00
5.345029399999999953e+01 3.735629699999999787e+01 6.659500099999999634e+01 2.822017999999999915e+00 -1.271228119064572448e+00
5.345986200000000110e+01 4.421796799999999905e+01 6.887179600000000335e+01 5.459572999999999787e+00 3.421522826465938083e-01
5.347796600000000211e+01 4.310921100000000195e+01 6.363603599999999716e+01 2.844864000000000104e+01 -5.347956431925113829e-01
5.351207399999999836e+01 3.855564100000000138e+01 6.602732799999999713e+01 2.765588000000000157e+00 -1.088528081920099977e+00
5.351587700000000325e+01 4.094132199999999955e+01 7.736166400000000465e+01 -1.448619999999999908e-01 -1.881463278794154315e+00
5.351872300000000138e+01 3.911140100000000075e+01 8.034754900000000077e+01 -2.642431000000000196e+00 -3.262020427762725383e+00
5.351875299999999669e+01 3.994596899999999806e+01 8.383981300000000658e+01 3.694939000000000107e+01 2.769956609566928130e-01
5.352585599999999744e+01 4.733238200000000262e+01 7.890768400000000327e+01 2.543035999999999852e+00 -2.638525074619194388e+00
5.353253899999999987e+01 4.973838400000000348e+01 7.814604900000000498e+01 1.963723000000000107e+00 -2.836627450607021039e+00
5.353316099999999977e+01 3.992265299999999684e+01 8.129267099999999857e+01 -1.030796000000000046e+00 -2.083524221888403360e+00
5.353316099999999977e+01 3.992265299999999684e+01 8.215792100000000175e+01 5.803837999999999830e+00 1.867918099024188372e-01
5.353348499999999888e+01 3.985011699999999735e+01 6.411960600000000454e+01 5.662954000000000043e+00 -3.706006724749248082e+00
5.355091500000000337e+01 3.878000600000000020e+01 7.754419699999999693e+01 1.929650000000000087e+00 -1.496028809489099887e+00
5.355200200000000166e+01 3.615700100000000106e+01 6.284299899999999894e+01 6.276231000000000115e+00 -3.946798403538060995e+00
5.356018799999999658e+01 5.065203900000000203e+01 8.693674500000000194e+01 1.256352000000000046e+01 -9.910969909461810889e-01
5.356483500000000220e+01 4.272085599999999772e+01 6.555767799999999568e+01 1.328820999999999941e+01 -9.356880259570327096e-01
5.357399699999999854e+01 5.738635299999999972e+01 8.016035499999999558e+01 2.461355000000000004e+01 -2.395850695827185461e+00
5.357479899999999873e+01 4.271470300000000009e+01 6.445507800000000032e+01 1.101599000000000039e+01 -6.030874083173460853e-01
5.357532900000000353e+01 4.392725399999999780e+01 6.375131999999999977e+01 9.955923000000000300e+00 -8.128091143203451940e-01
5.357711400000000168e+01 4.306800100000000242e+01 6.094649100000000175e+01 2.752854000000000134e+00 -2.557940724396825516e-01
5.358167300000000211e+01 5.166391000000000133e+01 7.537569399999999575e+01 -2.447325999999999890e+00 -2.679691064885636465e+00
5.358489999999999753e+01 5.756537600000000054e+01 7.296273800000000165e+01 1.360966999999999949e+01 -2.687448383946185793e+00
5.359753400000000312e+01 4.582070900000000080e+01 7.974813100000000077e+01 3.970120999999999789e+00 -3.036126578106396412e+00
5.361700100000000191e+01 4.181402599999999836e+01 6.178602599999999967e+01 5.286464999999999748e+00 -1.000744184580747848e-01
5.362369900000000200e+01 5.403730800000000301e+01 7.234919700000000375e+01 5.069919000000000509e-01 -2.400940771863067535e+00
5.363900399999999991e+01 4.535800199999999904e+01 6.818499799999999311e+01 2.667587000000000153e+00 2.087345480663365394e-01
5.365062700000000007e+01 5.253267300000000262e+01 7.402304100000000631e+01 -4.662949000000000122e-01 -2.513455941198965871e+00
5.366429500000000274e+01 5.711599700000000013e+01 8.519170400000000143e+01 -1.721914999999999907e+01 -1.661315384113262628e+00
5.366498200000000196e+01 5.721506500000000273e+01 8.267217999999999734e+01 -9.080726999999999549e+00 -1.852856974312331539e+00
5.366796899999999937e+01 5.529133600000000115e+01 7.257363900000000001e+01 1.901173999999999920e+00 -2.457915938006917322e+00
5.366802599999999757e+01 3.730800200000000189e+01 7.080897500000000377e+01 4.130969999999999587e+00 -2.726108480669358625e-01
5.366802599999999757e+01 3.885799800000000204e+01 7.080897500000000377e+01 7.930486000000000146e+00 -2.180022414403944175e+00
5.367020399999999825e+01 4.308358799999999889e+01 7.847444199999999626e+01 1.548337000000000074e+00 -2.365519390490727680e+00
5.367166900000000140e+01 4.278100200000000086e+01 8.652532999999999674e+01 7.193595000000000184e+00 -1.100640331491196777e+00
5.367538100000000156e+01 5.072365599999999830e+01 7.615757000000000687e+01 -1.904627999999999988e+00 -2.760925266563054592e+00
5.368464699999999823e+01 4.511278500000000236e+01 8.758702099999999291e+01 1.719249000000000027e+00 -1.747224033496951323e+00
5.369945899999999739e+01 4.364703800000000200e+01 6.678797099999999887e+01 3.232132000000000005e+00 -1.619304471860119943e+00
5.370891199999999799e+01 5.283607099999999690e+01 7.332304399999999589e+01 8.209073999999999538e-01 -2.459345417511652254e+00
5.372299999999999898e+01 5.217900099999999952e+01 8.694400000000000261e+01 -1.011956999999999951e+01 -1.037310056281767645e+00
5.372299999999999898e+01 5.352897600000000011e+01 8.631722299999999848e+01 -3.340615000000000112e+00 -8.694084061861198087e-01
5.372586100000000187e+01 4.116862499999999869e+01 6.361598599999999948e+01 6.401767000000000429e+00 -1.022777998804099281e-01
5.373122399999999743e+01 4.494486200000000053e+01 6.158951600000000326e+01 2.085977000000000192e+00 -6.673401119807484960e-01
5.375100700000000131e+01 3.914273800000000136e+01 6.451351900000000228e+01 5.612786999999999971e+00 -3.711997267850869697e+00
5.375167100000000175e+01 5.694699899999999815e+01 7.268167099999999436e+01 8.361646999999999608e+00 -2.586939535465058171e+00
5.375888799999999890e+01 4.800261299999999665e+01 8.838082900000000564e+01 -4.973479000000000205e+00 -2.551585274600368880e+00
5.377570300000000003e+01 5.806199600000000061e+01 7.711970499999999618e+01 -1.490462999999999916e+01 -1.566619884384666150e+00
5.378249699999999933e+01 4.433100100000000054e+01 8.699939000000000533e+01 9.198100000000000165e+00 -1.416500668261963192e+00
5.378349299999999999e+01 3.534211700000000178e+01 6.284299899999999894e+01 9.772600000000000620e+00 -3.959846862303514126e+00
5.378349299999999999e+01 3.697188599999999781e+01 6.284299899999999894e+01 3.237252000000000152e+01 -3.930904733776362292e+00
5.378414500000000231e+01 4.147202300000000008e+01 6.291598499999999916e+01 7.832104000000000177e+00 -5.911855302814467833e-02
5.379299900000000179e+01 4.100689299999999804e+01 8.521874200000000599e+01 1.876464999999999961e+01 5.697118684259449006e-01
5.379991499999999860e+01 5.017100500000000096e+01 7.744605300000000625e+01 -1.112568000000000001e+00 -3.024979249317223839e+00
5.380053699999999850e+01 3.949003199999999936e+01 8.059267400000000237e+01 -7.741299999999999848e+00 -2.187933598896143028e+00
5.380289100000000246e+01 4.670600100000000054e+01 8.911099199999999598e+01 -2.508445000000000036e+01 -2.205712388682381064e+00
5.381294299999999708e+01 3.992787200000000070e+01 6.970234700000000316e+01 -2.820066999999999879e+00 -1.969316440425078252e+00
5.382850599999999730e+01 5.685338999999999743e+01 8.139213599999999360e+01 -1.193023999999999951e+01 -2.134945223912096068e+00
5.382850599999999730e+01 5.706248099999999823e+01 8.065611300000000483e+01 -4.206633000000000067e+00 -2.310832363818604573e+00
5.383268699999999995e+01 4.173936799999999891e+01 7.770387300000000153e+01 -3.460675999999999863e+00 -2.009262469400767692e+00
5.383593799999999874e+01 4.903838300000000316e+01 7.820433800000000701e+01 -1.901272999999999991e+00 -2.682689976507293572e+00
5.384200299999999828e+01 4.547629500000000036e+01 8.828770400000000507e+01 -2.220105000000000217e+00 -1.903718986869999741e+00
5.384486799999999818e+01 3.895862600000000242e+01 6.530372599999999750e+01 1.031417000000000073e+01 -3.713207408984978919e+00
5.384802200000000028e+01 3.567802799999999763e+01 6.206800100000000242e+01 8.610201999999999245e+00 -3.949283676648470021e+00
5.384802200000000028e+01 3.567802799999999763e+01 6.361800000000000210e+01 1.131991999999999976e+01 -3.962841092097046047e+00
5.384802200000000028e+01 3.663597500000000196e+01 6.206800100000000242e+01 7.903954999999999842e+00 -3.933282936532718654e+00
5.384802200000000028e+01 3.663597500000000196e+01 6.361800000000000210e+01 2.273810999999999893e+01 -3.945139303288285326e+00
5.385184900000000141e+01 5.316022499999999695e+01 7.257130399999999781e+01 -6.354927000000000215e-01 -2.431454825172964185e+00
5.385388900000000234e+01 4.512200200000000194e+01 6.434098799999999585e+01 -1.510302000000000078e+01 -1.384866811154581212e+00
5.387945599999999757e+01 4.489272299999999660e+01 6.722739400000000387e+01 4.867121000000000031e+00 -2.058713283488926571e+00
5.387945599999999757e+01 4.489272299999999660e+01 6.914260099999999909e+01 4.699314000000000213e+00 1.379103134882149195e-01
5.388089000000000084e+01 3.782600000000000051e+01 6.606201199999999574e+01 -2.532303999999999888e+00 -3.962081483433366635e+00
5.388466600000000284e+01 3.958267200000000230e+01 6.374900099999999981e+01 8.481654000000000693e+00 -3.709823144256776839e+00
5.388584099999999921e+01 5.206960300000000075e+01 7.467865000000000464e+01 -1.314581000000000000e+00 -2.618485886031866272e+00
5.389248299999999858e+01 5.847532999999999959e+01 7.440195500000000095e+01 1.955208000000000013e+01 -3.121529481295709729e+00
5.389289500000000288e+01 4.625174299999999761e+01 6.818499799999999311e+01 1.637453000000000047e+00 7.007952913090474689e-02
5.389300200000000274e+01 4.635170699999999755e+01 6.257829699999999917e+01 -6.726367999999999903e+00 -1.183510942748542405e+00
5.389300200000000274e+01 4.635170699999999755e+01 6.351770400000000194e+01 -3.707739999999999725e+01 -1.411767568635175829e+00
5.389418799999999976e+01 4.379975100000000054e+01 6.938602400000000614e+01 4.160481999999999658e+01 2.864276739838073071e-01
5.389490500000000139e+01 4.905192900000000122e+01 8.777272000000000673e+01 -1.342760000000000065e-01 -1.100818253724561435e+00
5.390788299999999822e+01 4.063734399999999880e+01 8.439599599999999668e+01 2.896911000000000058e+01 4.575974375063475708e-01
5.391302499999999753e+01 4.229300299999999879e+01 6.101102399999999903e+01 4.298366999999999827e+00 -1.061040286738462179e-01
5.392000199999999666e+01 3.659629100000000079e+01 6.688530000000000086e+01 3.138395000000000046e+00 -2.411070441442444867e+00
5.393911700000000309e+01 4.248400099999999924e+01 7.012651099999999360e+01 2.520076999999999856e+01 8.784404839383995744e-01
5.394372899999999760e+01 3.993756900000000343e+01 8.304496000000000322e+01 1.449601999999999968e+01 1.784032164911259211e-01
5.395678699999999850e+01 5.021941400000000044e+01 8.742765799999999388e+01 1.372563000000000066e+01 -6.242675195936799870e-01
5.396366900000000300e+01 4.588333099999999831e+01 6.733499100000000226e+01 1.996763999999999983e+00 -2.207224312118143406e+00
5.396366900000000300e+01 4.588333099999999831e+01 6.903500400000000070e+01 2.102107999999999866e+00 2.737002186296965192e-02
5.398400099999999924e+01 3.836900299999999930e+01 7.888800000000000523e+01 4.655714999999999826e+00 -2.746019642381043457e+00
5.398400099999999924e+01 3.862289400000000228e+01 7.978174599999999828e+01 1.098700999999999928e+00 -2.824468783932541083e+00
5.398400099999999924e+01 4.006900000000000261e+01 7.718800400000000650e+01 -6.820243999999999751e-01 -6.649295999951311265e-01
5.398463799999999679e+01 5.141143399999999986e+01 8.701017799999999625e+01 -5.857912999999999926e+00 -6.216388758625625011e-01
5.398633999999999844e+01 5.713809200000000033e+01 7.950469999999999970e+01 1.929651000000000138e+01 -2.013742711978058875e+00
5.399655200000000121e+01 5.847045099999999707e+01 7.358624299999999607e+01 7.758256000000000263e+00 -3.100000424484852246e+00
5.400495500000000249e+01 3.633592999999999762e+01 6.804518099999999947e+01 3.672978000000000076e+00 -2.581798859961509596e+00
5.401429699999999912e+01 5.117300000000000182e+01 7.577229300000000478e+01 -3.748550999999999966e+00 -2.763658673068864591e+00
5.402121000000000350e+01 5.821218900000000218e+01 7.291840399999999534e+01 3.039953000000000127e+00 -2.634595269921838234e+00
5.402623700000000184e+01 3.844112400000000207e+01 7.705958599999999592e+01 1.674506000000000050e+00 -1.431627910823511263e+00
5.403521299999999883e+01 5.707551200000000335e+01 7.870574999999999477e+01 4.800093000000000387e+00 -1.969307019902789113e+00
5.405400099999999952e+01 4.669065499999999957e+01 7.947390000000000043e+01 5.395783999999999914e+00 -2.795481599866432187e+00
5.406208000000000169e+01 5.866751099999999752e+01 7.536708099999999888e+01 -3.884935000000000027e+00 -1.361484091363537763e+00
5.406285900000000311e+01 4.080800200000000189e+01 6.309460399999999680e+01 8.997764000000000095e+00 1.321038341289399939e-02
5.406456800000000129e+01 5.485871099999999956e+01 7.208272599999999386e+01 -9.721613999999999534e-01 -2.351958425378088080e+00
5.406599800000000045e+01 5.853170800000000185e+01 7.635970299999999611e+01 -7.471232000000000539e+01 -1.461463946927696878e+00
5.406929000000000229e+01 4.344742600000000010e+01 6.435752100000000553e+01 9.825687999999999533e+00 -8.118954722068072449e-01
5.408604400000000112e+01 4.323049199999999814e+01 6.599961899999999559e+01 9.886874999999999858e+00 -1.316209579388560202e+00
5.409129300000000029e+01 5.347129799999999733e+01 7.166199500000000455e+01 -2.984614999999999907e-01 -2.334713149170721369e+00
5.409129300000000029e+01 5.441070599999999757e+01 7.166199500000000455e+01 -1.584470000000000045e-01 -2.342613459253210628e+00
5.410021600000000319e+01 5.798720600000000047e+01 8.395192000000000121e+01 -4.108908999999999878e+01 -1.478742115270841984e+00
5.410594900000000251e+01 4.357355900000000304e+01 8.695337700000000325e+01 1.213627999999999929e+01 -1.227526034922180598e+00
5.410800199999999904e+01 3.717300000000000182e+01 7.634400200000000325e+01 9.937677000000000316e-01 -1.139230807260752654e+00
5.410800600000000316e+01 5.023274599999999879e+01 7.655416900000000169e+01 -8.914301999999999504e-01 -3.104741710226688767e+00
5.411634099999999847e+01 4.062787200000000354e+01 6.964405800000000113e+01 1.843150000000000066e+00 -2.045608656636332956e+00
5.411717199999999650e+01 3.698288699999999807e+01 6.605839500000000442e+01 4.247404999999999653e+00 -3.984118507223068928e+00
5.411869800000000197e+01 3.625192299999999790e+01 6.907922399999999641e+01 3.714046000000000181e+00 -2.744083594313095009e+00
5.411969799999999964e+01 4.363234299999999877e+01 7.895090500000000588e+01 1.010458000000000078e+00 -2.376754349191631199e+00
5.412206599999999668e+01 4.436311700000000258e+01 6.437608299999999417e+01 -4.478569000000000244e+00 -1.190226249136191017e+00
5.412757899999999722e+01 4.314402799999999871e+01 6.505751800000000173e+01 7.944640999999999842e+00 -9.351879777046921971e-01
5.413025700000000029e+01 5.576599900000000076e+01 8.600810199999999384e+01 4.648335000000000328e+00 -1.937085888192019656e+00
5.413169500000000056e+01 4.215465900000000232e+01 8.616809800000000052e+01 1.869519999999999982e+01 7.484094116737838309e-01
5.413229799999999869e+01 4.594600299999999748e+01 8.904770700000000261e+01 -7.592355999999999661e+00 -2.026422079284967648e+00
5.413229799999999869e+01 4.746600000000000108e+01 8.904770700000000261e+01 -2.487947000000000131e+01 -2.346651860175013482e+00
5.413399900000000287e+01 5.764899100000000232e+01 8.316288799999999526e+01 -8.926417999999999964e+00 -1.598833368752550443e+00
5.414092999999999734e+01 5.703499200000000258e+01 7.793997199999999737e+01 -1.136665999999999954e+01 -1.803322090773806341e+00
5.414459200000000294e+01 4.779391499999999837e+01 7.824582700000000557e+01 1.484007000000000076e+00 -2.559396944916857208e+00
5.414699900000000099e+01 3.676449199999999706e+01 7.036988100000000657e+01 2.441410999999999998e+00 -1.662747660205312339e-01
5.414699900000000099e+01 3.808299999999999841e+01 7.110499599999999987e+01 3.263152999999999793e+01 -3.390949678076609630e-01
5.414699900000000099e+01 3.940150799999999975e+01 7.036988100000000657e+01 -7.882551000000000307e+00 -2.175754112356371284e+00
5.416280700000000081e+01 4.482531699999999830e+01 8.782585899999999413e+01 1.032092999999999927e+00 -1.664549122980709006e+00
5.416432999999999964e+01 4.487099800000000016e+01 7.961666900000000169e+01 -1.823012000000000077e+00 -3.813579752811910861e+00
5.418329599999999857e+01 4.588199999999999790e+01 6.427770999999999901e+01 -5.083563999999999972e+00 -1.593493686958568523e+00
5.418425799999999981e+01 4.420600100000000054e+01 6.088489500000000021e+01 2.397892999999999830e+00 -3.771112632867560932e-01
5.418595100000000286e+01 5.615444200000000308e+01 7.225362400000000207e+01 6.994960999999999984e+00 -2.406271099866599705e+00
5.418770599999999860e+01 4.576069600000000293e+01 6.172988900000000001e+01 -5.159468999999999861e-01 -8.816886524600150432e-01
5.419270300000000162e+01 5.293899900000000258e+01 8.665370900000000631e+01 -4.444496000000000180e+01 -9.012176949009577109e-01
5.419921899999999937e+01 5.733838999999999686e+01 7.723997500000000116e+01 -3.035173999999999950e+01 -1.607339575729163084e+00
5.420464299999999724e+01 3.613002800000000292e+01 6.422433499999999640e+01 9.175753000000000270e+00 -3.964316079757851607e+00
5.421089599999999820e+01 4.981221800000000144e+01 8.772209900000000005e+01 7.621761000000000230e+00 -6.191455160284408121e-01
5.421434800000000109e+01 4.218835399999999680e+01 7.810391199999999401e+01 -6.011073999999999806e+00 -2.514474122735033124e+00
5.422187399999999968e+01 3.746763200000000182e+01 6.331683300000000258e+01 3.383897000000000332e+01 -3.921388442179439160e+00
5.423253600000000318e+01 4.856399900000000258e+01 7.771342500000000086e+01 5.784055000000000168e-01 -2.669939681731366310e+00
5.423253600000000318e+01 4.947100799999999765e+01 7.771342500000000086e+01 -1.792015999999999887e-01 -2.846909293158639276e+00
5.423316200000000009e+01 3.998094199999999887e+01 8.098927299999999718e+01 -2.482280000000000042e-01 -2.185645824315677554e+00
5.423316200000000009e+01 4.019003299999999967e+01 8.172529600000000016e+01 1.355086999999999930e+00 -2.065945024710876154e+00
5.423531299999999788e+01 4.451416400000000095e+01 6.935105099999999823e+01 9.054050000000000153e+00 1.084775874333846063e-01
5.424510599999999982e+01 3.801295499999999805e+01 7.630546599999999557e+01 1.505314999999999959e+00 -1.360416460423221396e+00
5.426274899999999946e+01 3.715494499999999789e+01 6.409771000000000640e+01 7.385664000000000229e+00 -3.938938409895569315e+00
5.426381700000000308e+01 3.762650299999999959e+01 7.714535499999999502e+01 -9.717392000000000252e+00 -1.395080970281637578e+00
5.427456699999999756e+01 3.869330599999999976e+01 6.410107399999999700e+01 1.359970000000000034e+01 -3.888702676433650751e+00
5.427502799999999894e+01 4.170900300000000271e+01 7.006197400000000641e+01 -9.839306999999999914e-02 -2.281107447655308818e+00
5.427502799999999894e+01 4.325899900000000287e+01 7.006197400000000641e+01 1.909396999999999878e+02 2.358983406109345649e-01
5.427748900000000276e+01 3.739337499999999892e+01 6.557109800000000632e+01 2.721950999999999787e+00 -3.962733714336568180e+00
5.427748900000000276e+01 3.825862500000000210e+01 6.557109800000000632e+01 -6.793432999999999833e-01 -3.934589809362412094e+00
5.428711700000000207e+01 3.615700100000000106e+01 6.152449000000000012e+01 7.210263000000000311e+00 -3.940119333678452129e+00
5.429137399999999758e+01 4.421676300000000026e+01 7.910760500000000661e+01 -4.335075999999999929e-01 -2.279066302723528725e+00
5.429160300000000206e+01 5.216128899999999646e+01 7.415571599999999819e+01 -1.290229999999999988e+00 -2.594720162935347130e+00
5.431654699999999991e+01 4.139500400000000013e+01 6.221836900000000270e+01 1.180249000000000059e+01 -3.961383684345779255e+00
5.432090800000000286e+01 4.442744799999999827e+01 6.670864899999999409e+01 9.312889000000000195e+00 -2.030364200528136820e+00
5.432348999999999961e+01 4.262451899999999938e+01 8.664810900000000515e+01 1.282230000000000025e+01 7.626016930874991440e-01
5.432700299999999771e+01 3.490302299999999747e+01 6.236402499999999804e+01 2.332107999999999848e+01 -3.963124725277285876e+00
5.432700299999999771e+01 3.490302299999999747e+01 6.332197200000000237e+01 2.104617999999999967e+01 -3.972061392547754366e+00
5.432700299999999771e+01 3.741098000000000212e+01 6.236402499999999804e+01 4.027541999999999689e+01 -3.920551892857406351e+00
5.433448800000000034e+01 5.665188200000000052e+01 8.599539199999999539e+01 1.127092000000000027e+01 -1.754432957026367701e+00
5.433500699999999739e+01 3.637389000000000294e+01 7.634400200000000325e+01 -3.161259000000000152e-01 -1.131031727416543342e+00
5.433500699999999739e+01 3.790902299999999769e+01 7.787913500000000511e+01 -3.034911000000000136e+00 -1.448685294773744525e+00
5.433577700000000021e+01 3.856202300000000349e+01 6.487110099999999591e+01 1.196923999999999921e+01 -3.904656967384910971e+00
5.433805100000000010e+01 4.167636099999999999e+01 6.138430799999999721e+01 5.391009000000000384e+00 -4.002529709380315381e+00
5.434651199999999704e+01 3.923828100000000063e+01 7.705025500000000704e+01 1.607383000000000006e+00 -5.531008771460471651e-01
5.434732100000000088e+01 4.153015099999999649e+01 8.575706499999999721e+01 2.580424999999999969e+01 5.913265265772081891e-01
5.435111200000000053e+01 4.965357600000000105e+01 7.681294300000000419e+01 -7.825803999999999538e-01 -2.974149990620257089e+00
5.436625699999999739e+01 4.010800199999999904e+01 6.315289299999999884e+01 1.501131999999999955e+01 -3.892717502750974834e+00
5.438964800000000110e+01 5.226320599999999672e+01 7.319836399999999799e+01 -1.616762999999999950e+00 -2.530541648337329974e+00
5.438979299999999739e+01 5.068868299999999749e+01 7.581644400000000417e+01 -1.182384000000000102e+00 -2.760707711707913958e+00
5.439199800000000096e+01 4.306800100000000242e+01 6.071500000000000341e+01 1.106190000000000007e+00 -1.225341647042570148e-01
5.439829300000000245e+01 3.670329699999999917e+01 7.558400000000000318e+01 1.779010999999999898e+00 -1.120855344033809597e+00
5.439829300000000245e+01 3.670329699999999917e+01 7.710400400000000332e+01 -2.800336000000000158e+00 -2.498664388334377762e+00
5.439829300000000245e+01 3.764270400000000194e+01 7.558400000000000318e+01 1.388185999999999920e+00 -2.315403051173454130e-01
5.441585899999999754e+01 4.855400099999999952e+01 8.823339099999999746e+01 -1.279377000000000031e+01 -2.609904614550798030e+00
5.441686200000000184e+01 5.444699899999999815e+01 8.594370999999999583e+01 -3.768883000000000094e-01 -9.510784692898881509e-01
5.441978799999999694e+01 4.540312999999999732e+01 6.648782300000000589e+01 3.974813000000000152e+00 -2.235579224658303055e+00
5.442657100000000270e+01 4.385233699999999857e+01 6.972664600000000235e+01 9.946541000000000565e+01 1.452970798505023031e-01
5.444525900000000007e+01 4.535800199999999904e+01 6.963110399999999345e+01 9.003061999999999454e-01 -4.863640027184513992e-02
5.445547499999999985e+01 5.750223499999999888e+01 8.549631499999999562e+01 -8.253297000000000549e-01 -1.543314680298601971e+00
5.448365799999999837e+01 3.795728299999999678e+01 6.410107399999999700e+01 1.745129999999999981e+01 -3.913620570427067236e+00
5.448799900000000207e+01 5.689886099999999658e+01 8.145593300000000170e+01 -1.832115999999999900e+01 -1.973758681695198192e+00
5.448799900000000207e+01 5.700999800000000306e+01 8.065799699999999461e+01 -1.891365000000000052e+01 -2.197067779537245524e+00
5.448900199999999927e+01 4.673333000000000226e+01 6.765966799999999637e+01 2.525398000000000032e+00 -1.002890017926257177e-01
5.448900199999999927e+01 4.673333000000000226e+01 6.871032700000000659e+01 1.150461999999999918e+01 -8.867210339029849009e-02
5.450072500000000275e+01 3.828026200000000046e+01 6.324121900000000096e+01 4.349815999999999860e+01 -3.895536721664022650e+00
5.450882699999999659e+01 4.770022600000000068e+01 7.773336000000000467e+01 3.542912999999999757e-01 -2.615952478983136764e+00
5.450933100000000309e+01 3.921900200000000325e+01 8.026332899999999881e+01 -1.985257999999999967e+00 -3.288298083964420471e+00
5.450933100000000309e+01 4.091899899999999946e+01 7.751267199999999491e+01 5.039424999999999599e-01 -1.900243064847197072e+00
5.450939900000000193e+01 5.691188400000000058e+01 7.229963700000000415e+01 1.087836000000000070e+01 -2.407071773296002526e+00
5.451167300000000182e+01 5.525051899999999705e+01 7.183828699999999401e+01 -3.888406999999999947e+00 -2.284452318186680930e+00
5.451281699999999830e+01 4.901750200000000035e+01 7.697964500000000498e+01 -3.913706000000000129e-01 -2.835030603254488746e+00
5.451866900000000271e+01 4.393049200000000098e+01 6.486699699999999780e+01 -3.022901000000000060e-01 -1.265944928787620327e+00
5.451866900000000271e+01 4.393049200000000098e+01 6.626699100000000442e+01 9.321889000000000536e+00 -1.813455756624001491e+00
5.451866900000000271e+01 4.479574199999999706e+01 6.486699699999999780e+01 -1.363419000000000025e+01 -1.615491984197723996e+00
5.451866900000000271e+01 4.544826100000000224e+01 6.486699699999999780e+01 -1.661407000000000167e+01 -1.792984414991429798e+00
5.452188900000000160e+01 5.394100199999999745e+01 7.112900500000000648e+01 -6.102900999999999465e-01 -2.281016852065019584e+00
5.452210999999999785e+01 5.217900099999999952e+01 8.671699499999999716e+01 -4.391723999999999961e+01 -1.070974703090354030e+00
5.452685499999999763e+01 5.619862400000000235e+01 8.649901599999999746e+01 5.727795999999999665e+00 -1.884900765283146207e+00
5.453385200000000310e+01 4.002010299999999887e+01 8.344542699999999513e+01 7.686367999999999867e+00 7.762521302616051666e-02
5.453570599999999757e+01 5.777170199999999767e+01 7.665000200000000063e+01 -3.763747000000000043e+01 -1.461634008450213740e+00
5.453904699999999650e+01 3.660164600000000235e+01 6.491331499999999721e+01 1.279172999999999938e+01 -3.968411511396774394e+00
5.454486800000000102e+01 3.782600000000000051e+01 6.487110099999999591e+01 1.159787999999999997e+01 -3.932007829210651728e+00
5.454688300000000112e+01 5.687637300000000096e+01 7.982366899999999532e+01 5.366032999999999831e+00 -2.460860987380326215e+00
5.455192900000000122e+01 4.718156400000000161e+01 7.907730100000000562e+01 8.836066999999999894e+00 -2.686144267402140517e+00
5.455192900000000122e+01 4.739065599999999989e+01 7.834127800000000263e+01 1.561473000000000111e+00 -2.663431040325751731e+00
5.455266999999999911e+01 4.505599999999999739e+01 6.095567299999999733e+01 3.687879999999999825e+00 -5.719362005071455535e-01
5.456100099999999742e+01 5.271129599999999726e+01 7.195229299999999739e+01 -1.372519000000000045e+00 -3.500000000000000444e+00
5.457499700000000331e+01 5.661633299999999736e+01 7.920467399999999714e+01 1.181339000000000006e+01 -2.074115628308893289e+00
5.457695400000000063e+01 4.362709399999999960e+01 6.556699399999999400e+01 6.375943000000000360e+00 -1.431534586690899280e+00
5.457695400000000063e+01 4.512200200000000194e+01 6.556699399999999400e+01 1.902171999999999974e+00 -2.000444678861173387e+00
5.457962400000000258e+01 3.989241799999999927e+01 6.997328199999999754e+01 -2.052432999999999907e+01 -2.165769189584046295e+00
5.457962400000000258e+01 4.129241900000000243e+01 6.997328199999999754e+01 -9.839306999999999914e-02 -2.295382405386108271e+00
5.459248399999999890e+01 5.874270599999999831e+01 7.396932999999999936e+01 -2.241880999999999791e+00 -2.925912927485755599e+00
5.459695399999999665e+01 4.557099900000000048e+01 7.988404800000000705e+01 4.436097000000000179e+00 -3.166799078696619141e+00
5.460200100000000134e+01 4.541300999999999988e+01 8.861711099999999419e+01 -1.207855999999999952e+01 -1.869762385761249757e+00
5.460200100000000134e+01 4.670600100000000054e+01 8.933799700000000144e+01 -1.435075999999999929e+01 -2.155942070071703576e+00
5.460200100000000134e+01 4.805597699999999861e+01 8.871121999999999730e+01 -2.298241000000000156e+01 -2.458256060602527882e+00
5.460301599999999667e+01 5.721506500000000273e+01 8.267217999999999734e+01 -2.290565000000000140e+01 -1.632102966321391957e+00
5.460327099999999945e+01 4.093717999999999790e+01 8.488132500000000391e+01 1.681687000000000154e+01 3.885956692176317784e-01
5.460788300000000106e+01 4.069563300000000083e+01 8.409259799999999530e+01 3.350806999999999647e+01 3.076501931744579088e-01
5.460900900000000036e+01 5.895811100000000238e+01 7.316000400000000070e+01 -2.616706999999999894e+00 -2.936187682516735009e+00
5.461072500000000218e+01 3.926223000000000241e+01 6.314062500000000000e+01 9.563890000000000668e+00 -3.889019513414235796e+00
5.461218300000000170e+01 5.768998299999999801e+01 7.230094099999999457e+01 2.207879999999999843e+00 -2.460130993985476966e+00
5.462274599999999936e+01 3.678155100000000033e+01 6.564861299999999744e+01 4.741295000000000037e+00 -3.982185310117703825e+00
5.462302799999999792e+01 3.538200400000000201e+01 6.158901999999999788e+01 5.424558000000000213e+00 -3.952143480694236821e+00
5.462302799999999792e+01 3.538200400000000201e+01 6.409697699999999543e+01 6.422007999999999939e+00 -3.976694214226986990e+00
5.462597300000000189e+01 3.730800200000000189e+01 7.080897500000000377e+01 2.737100999999999829e+01 -2.116472559016233101e-01
5.463183999999999685e+01 5.663839000000000112e+01 7.750734699999999577e+01 -2.079447000000000045e+01 -1.690991622670565464e+00
5.464372999999999791e+01 4.020494800000000168e+01 8.261233500000000163e+01 1.373340999999999923e+01 6.345473793352686409e-02
5.464572900000000288e+01 5.790343500000000176e+01 8.483603700000000458e+01 -1.421878000000000064e+01 -1.391405651820691425e+00
5.464729299999999768e+01 4.809429599999999994e+01 7.702099599999999668e+01 5.781868000000000007e-01 -2.688214526538854177e+00
5.464766699999999844e+01 5.712832999999999828e+01 8.615300799999999981e+01 5.869696000000000247e+00 -1.664446350651789919e+00
5.464876600000000195e+01 4.384345199999999920e+01 6.065029100000000284e+01 2.823728000000000016e+00 -2.267495980101333908e-01
5.464949000000000012e+01 4.624388499999999880e+01 6.675160200000000543e+01 2.678586999999999829e+00 -2.400573089973449203e+00
5.465299999999999869e+01 4.641499300000000261e+01 6.224889000000000294e+01 -1.938225999999999871e+01 -1.156301522829694672e+00
5.465299999999999869e+01 4.641499300000000261e+01 6.384711500000000228e+01 -6.191093999999999653e+01 -1.620380781689757299e+00
5.465299999999999869e+01 4.664199800000000096e+01 6.304800000000000182e+01 -1.198025999999999947e+01 -1.410464264669389234e+00
5.465771900000000016e+01 5.113358300000000156e+01 7.544562500000000682e+01 -1.464982999999999924e+00 -2.756935690871384903e+00
5.467153900000000277e+01 5.871223100000000272e+01 7.492486599999999441e+01 1.426735000000000086e+00 -2.880022076642472229e+00
5.467229499999999831e+01 5.862870399999999904e+01 7.240000200000000063e+01 4.144267999999999841e-01 -2.525568122486917311e+00
5.467999999999999972e+01 3.630600400000000150e+01 6.735500299999999640e+01 3.871871000000000063e+00 -2.524617541211090277e+00
5.467999999999999972e+01 3.653300899999999984e+01 6.655589299999999753e+01 4.289564000000000377e+00 -4.010902165531533115e+00
5.468048900000000145e+01 4.408249299999999948e+01 8.749977099999999552e+01 6.117061999999999777e+00 -1.421032219049304990e+00
5.471925699999999892e+01 4.925400199999999984e+01 8.817510199999999543e+01 2.269019000000000119e+00 -6.112479253193866535e-01
5.472711600000000232e+01 5.068739300000000014e+01 8.741850999999999772e+01 6.332227999999999746e+00 -6.106733472569920718e-01
5.472956800000000044e+01 4.346133799999999781e+01 8.710364500000000021e+01 9.089990999999999488e+00 7.157140414525219319e-01
5.473802899999999738e+01 5.298828100000000063e+01 8.651030000000000086e+01 -3.055225000000000080e+01 -9.446942666362083685e-01
5.475266299999999831e+01 4.320394100000000037e+01 7.869500700000000393e+01 -5.836044999999999705e-01 -2.541938465014178750e+00
5.475400199999999984e+01 4.248400099999999924e+01 7.035799400000000503e+01 1.512292000000000058e+01 8.335571625972892917e-01
5.475849199999999684e+01 5.811018800000000084e+01 8.381353000000000009e+01 -3.354549000000000003e+00 -1.312627595017352045e+00
5.475962799999999930e+01 3.811097699999999833e+01 6.263140099999999677e+01 2.865983999999999909e+01 -3.910275447440503260e+00
5.476285599999999931e+01 4.054062700000000063e+01 6.266198299999999932e+01 8.151996999999999716e+00 -3.921015322370168477e+00
5.476422099999999915e+01 3.712536200000000264e+01 7.771217300000000705e+01 5.967147999999999897e-01 -2.444008253496778416e+00
5.477733599999999825e+01 3.903306200000000104e+01 7.093293799999999294e+01 1.658310000000000173e+01 -4.117844144005790019e-01
5.478267300000000262e+01 4.454772899999999680e+01 6.970081299999999658e+01 1.346432000000000073e+01 -3.100665851136189671e-02
5.478604500000000144e+01 4.436311700000000258e+01 6.556699399999999400e+01 5.243335000000000079e+00 -1.836639504564340886e+00
5.479622700000000179e+01 4.210862699999999847e+01 8.621127300000000560e+01 1.794448999999999828e+01 5.438244244261045690e-01
5.479888499999999851e+01 3.831163399999999797e+01 7.865560200000000179e+01 1.027679999999999971e+01 -2.675055966222973147e+00
5.480745699999999943e+01 4.099840499999999821e+01 6.178574400000000111e+01 5.588452000000000197e+00 -3.976254121181540313e+00
5.480800599999999889e+01 4.910012100000000146e+01 7.612154400000000010e+01 -6.634664000000000117e-01 -2.921405760046476452e+00
5.480800599999999889e+01 4.996537000000000006e+01 7.612154400000000010e+01 -1.544311999999999907e+00 -3.082150540479864365e+00
5.481000099999999975e+01 4.560204300000000188e+01 6.136406699999999859e+01 8.354983000000000715e+00 -7.655116366282226359e-01
5.481367099999999937e+01 4.620799999999999841e+01 6.956032600000000343e+01 1.028408999999999990e-01 -1.585236085015397089e-01
5.482462300000000255e+01 4.221709400000000301e+01 6.088820599999999672e+01 1.066799999999999926e+01 -4.041834914590564765e+00
5.482550799999999924e+01 5.147899999999999920e+01 8.677528399999999920e+01 -4.371551000000000187e-01 -6.087646088615509266e-01
5.482888799999999918e+01 3.717300000000000182e+01 7.505101000000000511e+01 2.346049999999999969e+00 -1.093438698503760298e+00
5.483165400000000034e+01 3.757509600000000205e+01 6.193769499999999795e+01 2.130046000000000106e+01 -3.931648219413473644e+00
5.483400000000000318e+01 3.869367199999999940e+01 7.941333000000000197e+01 5.402359999999999829e+00 -2.776643759720432314e+00
5.483507500000000334e+01 5.179301499999999692e+01 7.372051999999999339e+01 -3.279131000000000018e+00 -2.570596529855860179e+00
5.483535799999999938e+01 5.684512300000000096e+01 8.702300300000000277e+01 4.028717999999999577e+00 -1.812297399393746566e+00
5.484511599999999731e+01 3.595734399999999908e+01 6.863800000000000523e+01 4.436624000000000123e+00 -2.778179990092089824e+00
5.484948700000000343e+01 5.514699900000000099e+01 8.621108999999999867e+01 2.310778000000000176e+01 -2.080337697361478444e+00
5.485067000000000093e+01 3.630463000000000306e+01 6.970397199999999316e+01 6.334265000000000256e+00 -3.221601939236776874e-02
5.485129500000000036e+01 5.318100400000000150e+01 7.119229099999999733e+01 -1.429619999999999891e+00 -3.500000000000000000e+00
5.485129500000000036e+01 5.470100000000000051e+01 7.119229099999999733e+01 -5.937518999999999991e-01 -2.232573728666032764e+00
5.486043200000000297e+01 3.875917400000000157e+01 7.660564399999999807e+01 -1.687650999999999968e+01 -1.366190779272763001e+00
5.486201499999999953e+01 5.835211199999999820e+01 7.594466400000000306e+01 -9.603585999999999956e+00 -2.706187344364062941e+00
5.486377699999999891e+01 4.012183399999999978e+01 7.732617199999999968e+01 1.553045999999999927e+00 -1.765650624925054091e+00
5.486800000000000210e+01 3.594329100000000210e+01 7.587429799999999602e+01 1.254631999999999969e+00 -1.091618257965483840e+00
5.486800000000000210e+01 3.594329100000000210e+01 7.681370499999999879e+01 6.147432000000000452e-01 -2.572487388088538385e+00
5.486800000000000210e+01 3.840270999999999901e+01 7.587429799999999602e+01 -2.028528999999999805e+00 -2.961947980721177376e-01
5.488302199999999686e+01 4.059241899999999958e+01 6.991499299999999550e+01 -1.016836999999999946e+01 -2.287595629337869862e+00
5.488398399999999810e+01 4.603935200000000094e+01 6.464121199999999590e+01 -1.473694000000000059e+01 -1.903165597324163905e+00
5.490589500000000100e+01 3.599877899999999897e+01 6.100989500000000021e+01 5.332930000000000170e+00 -2.685010168524198715e+00
5.492166900000000140e+01 4.614733100000000121e+01 6.617499499999999557e+01 3.432103999999999822e+00 -2.413995363744092959e+00
5.492509499999999889e+01 5.156620800000000315e+01 7.474562799999999640e+01 -1.482444000000000095e+00 -2.700819655412703746e+00
5.492573200000000355e+01 5.357581299999999658e+01 8.620184299999999666e+01 -5.600672999999999568e+00 -9.758696558956014844e-01
5.493267099999999914e+01 3.708232900000000143e+01 6.115299999999999869e+01 1.402186000000000021e+01 -3.950617259215727817e+00
5.493316300000000041e+01 3.992265299999999684e+01 8.129267099999999857e+01 1.712881000000000098e+00 -2.199162836931039866e+00
5.494072299999999842e+01 4.099399900000000230e+01 6.122649400000000242e+01 5.203973999999999656e+00 -4.000564180668274794e+00
5.494195599999999757e+01 3.970991099999999818e+01 8.065992699999999616e+01 -2.068770000000000220e+00 -2.282510319129270382e+00
5.495789700000000266e+01 4.484321599999999819e+01 6.059289600000000320e+01 3.829140999999999906e+00 -4.656064142479440782e-01
5.496475999999999829e+01 5.613468600000000208e+01 8.719300099999999532e+01 3.267805000000000071e+00 -1.957501140537207585e+00
5.497300299999999851e+01 3.299200100000000191e+01 7.534500099999999634e+01 1.009965999999999919e+00 -1.362314206351747714e+00
5.497373999999999938e+01 3.804966000000000292e+01 7.097997999999999763e+01 9.778686000000000433e+01 -2.861138381883599480e-01
5.497995800000000344e+01 4.584393299999999982e+01 6.547499799999999937e+01 -4.209394999999999776e+00 -2.229334963030136230e+00
5.498378000000000299e+01 4.852760700000000327e+01 7.643102299999999616e+01 -2.699690999999999896e-02 -2.806692018516381726e+00
5.498455400000000282e+01 4.669065499999999957e+01 7.947390000000000043e+01 5.201952000000000353e+00 -2.832842179983405817e+00
5.499967199999999679e+01 5.669900100000000265e+01 7.219767799999999625e+01 8.999245000000000161e-01 -2.287096537906692539e+00
5.500197599999999909e+01 5.253937499999999972e+01 8.619259599999999466e+01 -5.010580000000000211e+01 -9.430539215778764861e-01
5.500899900000000287e+01 5.626827999999999719e+01 7.802651199999999676e+01 -2.844834000000000174e+01 -1.838971058591342578e+00
5.500981900000000024e+01 4.714617899999999651e+01 6.702700000000000102e+01 1.907488999999999990e+00 -2.684922439009246320e-01
5.501076900000000336e+01 4.170854899999999787e+01 7.042270700000000261e+01 8.460674999999999724e-01 -2.561524096203340317e+00
5.501947400000000243e+01 5.631758899999999812e+01 7.913302600000000098e+01 3.340201999999999893e-01 -6.686973346413045416e-01
5.502957899999999825e+01 4.487099800000000016e+01 7.961666900000000169e+01 4.798650999999999889e-01 -2.233634771687076803e+00
5.503564099999999826e+01 5.770597500000000224e+01 8.306877900000000636e+01 -1.260036000000000023e+01 -1.365398464693960756e+00
5.503972999999999871e+01 4.716243000000000052e+01 6.757303600000000188e+01 2.496685999999999961e+00 -2.641533775586404342e-01
5.504050800000000265e+01 4.020472300000000132e+01 8.369599900000000048e+01 1.674934000000000012e+01 -2.720327576267595956e-02
5.505345899999999659e+01 3.671196400000000182e+01 7.046903199999999856e+01 9.178566000000000003e+00 -1.163208022439180533e-01
5.507170500000000146e+01 4.594600299999999748e+01 8.904770700000000261e+01 -2.939435999999999893e+01 -1.983914699412015148e+00
5.507170500000000146e+01 4.746600000000000108e+01 8.904770700000000261e+01 -7.052215999999999951e+01 -2.287330125220957910e+00
5.508766899999999822e+01 5.010399999999999920e+01 8.810432400000000541e+01 1.899327999999999861e+01 -6.075590490203434113e-01
5.509155700000000166e+01 3.635511000000000337e+01 7.503810900000000572e+01 2.566142000000000145e+00 -1.069069244535634455e+00
5.509609999999999985e+01 4.475871999999999673e+01 8.813058499999999640e+01 1.088831000000000060e+01 -1.659213963711782869e+00
5.509706500000000062e+01 3.641411599999999993e+01 7.767208100000000570e+01 2.627508000000000066e-01 -2.494509783262165215e+00
5.510200100000000134e+01 3.460700200000000137e+01 6.284299899999999894e+01 7.943156000000000105e+00 -3.973827108218069615e+00
5.510200100000000134e+01 3.483849299999999971e+01 6.202811400000000219e+01 1.451124000000000080e+01 -3.963853426023502102e+00
5.510200100000000134e+01 3.483849299999999971e+01 6.365788299999999822e+01 2.151200000000000045e+01 -3.980265984846600880e+00
5.510289000000000215e+01 5.815899999999999892e+01 7.186701200000000256e+01 -1.131958000000000020e+00 -2.409255537376344680e+00
5.510772300000000001e+01 5.801499900000000309e+01 8.579525800000000402e+01 5.043266000000000027e+00 -1.435011770253753038e+00
5.511666900000000169e+01 4.271700299999999828e+01 8.693732500000000130e+01 7.291018000000000221e+00 4.747134663082595019e-01
5.511686300000000216e+01 5.557961999999999847e+01 8.691108699999999487e+01 2.207199000000000133e+00 -2.046674115447316034e+00
5.511700100000000191e+01 4.733429000000000286e+01 7.731129500000000121e+01 9.622836999999999641e-01 -2.676735859080879631e+00
5.512100199999999717e+01 5.650000000000000000e+01 8.789299800000000573e+01 7.817657999999999552e-01 -1.948529790683682705e+00
5.512802099999999683e+01 4.151709400000000016e+01 6.094649100000000175e+01 4.865751999999999633e+00 -4.027927624081586444e+00
5.512802099999999683e+01 4.306800100000000242e+01 6.050590900000000261e+01 3.852068000000000048e+00 -1.241872366112865667e+00
5.513663900000000240e+01 5.830003399999999658e+01 8.526866099999999449e+01 7.417629999999999502e-01 -1.325664993393169233e+00
5.514200199999999796e+01 5.938871000000000322e+01 7.269029999999999347e+01 -9.808525999999999634e-01 -2.826219052654962649e+00
5.514200199999999796e+01 5.938871000000000322e+01 7.362970699999999624e+01 -6.933894999999999698e+00 -2.794788502068044966e+00
5.515288499999999772e+01 5.444699899999999815e+01 8.615280199999999411e+01 2.398465999999999987e+00 -2.226138241208566626e+00
5.515829500000000252e+01 3.793299900000000235e+01 7.511429599999999596e+01 2.433899999999999952e+00 -2.447255980816692711e-01
5.517389299999999963e+01 5.858474300000000312e+01 8.446299700000000144e+01 -3.096065999999999985e+00 -1.218511668365640510e+00
5.517968799999999874e+01 3.616653800000000274e+01 6.456149299999999869e+01 2.544980999999999938e+01 -3.974269084767919846e+00
5.518166699999999736e+01 3.896657600000000343e+01 6.247686800000000318e+01 5.703134000000000370e+00 -3.915174286336325249e+00
5.518662599999999685e+01 4.333490799999999865e+01 7.018479899999999816e+01 6.959947999999999979e+01 4.623606093594547772e-01
5.519212300000000226e+01 4.415932500000000260e+01 7.908566299999999671e+01 -1.663409000000000137e-01 -2.447493725226296934e+00
5.520000799999999685e+01 3.219288999999999845e+01 7.534500099999999634e+01 1.668601000000000001e+00 -1.424990475572889714e+00
