7.707099999999999618e+00 -3.105300000000000171e+00 3.758000000000000007e+00 3.145824000000000176e+00 -1.867758776669244808e-02
7.707099999999999618e+00 -3.105300000000000171e+00 4.623199999999999754e+00 7.405886999999999887e+00 -1.878882450098097803e-02
7.707200000000000273e+00 -3.346600000000000019e+00 -2.832300000000000040e+00 2.372381999999999991e+00 -9.485421467955103270e-02
7.707399999999999807e+00 -3.781400000000000095e+00 7.925699999999999967e+00 5.171954000000000384e+00 -1.886813546135771708e-02
7.709900000000000198e+00 -2.963599999999999923e+01 6.549999999999999822e+00 -5.009000000000000341e+00 -1.484700976406101436e-01
7.709900000000000198e+00 -2.963599999999999923e+01 7.488000000000000433e+00 -1.030626999999999960e+01 -1.410782344024129054e-01
7.712399999999999700e+00 -2.384299999999999997e+01 4.326100000000000279e+01 6.645419000000000409e+00 -2.664394959765294391e-01
7.714999999999999858e+00 -2.525900000000000034e+01 1.040900000000000070e+01 -3.037106000000000083e+00 -2.258140639677896216e-02
7.714999999999999858e+00 -2.385900000000000176e+01 1.040900000000000070e+01 9.964142999999999750e-01 -1.304069010565717980e-02
7.716400000000000148e+00 -3.393699999999999761e+01 2.767899999999999849e+01 -5.963462999999999958e-01 -3.517273455092204820e-02
7.721300000000000274e+00 -2.327899999999999991e+01 2.845200000000000173e+01 2.682453000000000198e+00 -2.673873855782246123e-01
7.722500000000000142e+00 -6.720500000000000362e+00 2.658399999999999963e+01 -1.651941000000000059e+01 -2.129041598704581872e-01
7.722500000000000142e+00 -5.855299999999999727e+00 2.658399999999999963e+01 -1.131520000000000081e+01 -9.363885255310923361e-02
7.722699999999999676e+00 -2.907600000000000051e+01 8.469699999999999562e+00 5.917609999999999815e+00 -5.798414451251004964e-02
7.722699999999999676e+00 -2.821099999999999852e+01 8.469699999999999562e+00 6.010225000000000151e+00 -5.117868080875372094e-02
7.724000000000000199e+00 -3.857999999999999829e+01 1.350500000000000078e+01 4.439499999999999780e+00 -5.556491644519502560e-02
7.725299999999999834e+00 -1.881000000000000005e+00 5.399899999999999700e+00 1.817415000000000003e+00 -1.927275169366999413e-02
7.732400000000000162e+00 -8.356099999999999639e+00 8.772399999999999309e+00 1.600551000000000057e+00 -4.284941470542581732e-02
7.738100000000000200e+00 -6.353299999999999947e+00 -1.679400000000000004e+00 2.846246999999999971e+00 -1.561913950314545649e-02
7.739300000000000068e+00 -2.548199999999999932e+01 2.383599999999999852e+01 9.137565999999999633e+00 -7.254283801210974214e-02
7.739700000000000024e+00 -8.808999999999999275e+00 2.146700000000000053e+00 3.508646000000000154e+00 -1.386453454415182383e-02
7.739700000000000024e+00 -2.388899999999999935e+01 2.208699999999999974e+01 2.606315999999999988e+01 -7.164779210882041283e-02
7.740999999999999659e+00 -3.704800000000000182e+01 2.322200000000000131e+01 9.616047000000000011e+00 -1.433614898348430367e-01
7.748300000000000409e+00 -2.428699999999999903e+01 7.295099999999999696e+00 4.178975999999999802e-01 -7.970609189105212419e-03
7.751299999999999635e+00 -3.229699999999999793e+00 1.307399999999999984e+01 7.664600000000000302e-01 -4.532372270317470975e-02
7.763700000000000045e+00 -3.797699999999999676e+01 2.801300000000000168e+01 5.911837000000000231e+00 -1.415215032776108994e-01
7.767000000000000348e+00 -2.490599999999999881e+01 2.596999999999999975e+00 1.918201000000000045e+00 -1.307876397874072061e-01
7.769000000000000128e+00 -5.056699999999999529e-01 6.320700000000000429e+00 1.556462999999999930e+00 -1.965734659115723343e-02
7.769000000000000128e+00 -5.056699999999999529e-01 7.371299999999999741e+00 5.538753999999999955e+00 -1.972097052448172974e-02
7.769899999999999807e+00 -3.092599999999999838e+01 5.725999999999999979e+00 -1.561180000000000012e+00 -1.503012322268938161e-01
7.772999999999999687e+00 -9.035000000000000142e+00 2.806099999999999994e+01 -4.390916999999999959e+00 -2.128420548596373363e-01
7.772999999999999687e+00 -7.558699999999999974e+00 2.737900000000000134e+01 -8.258072000000000301e+00 -2.128698587372675755e-01
7.780000000000000249e+00 -2.787900000000000134e+01 2.594800000000000040e+01 -3.179717000000000127e+01 -7.382787785060571095e-02
7.780000000000000249e+00 -2.787900000000000134e+01 2.688800000000000168e+01 -5.051129999999999853e+01 -7.363174814638709376e-02
7.780800000000000161e+00 -5.551899999999999835e+00 2.728399999999999892e+01 -7.463593999999999618e+00 -9.362873787768476175e-02
7.782000000000000028e+00 -1.639299999999999979e+00 2.519699999999999918e+01 -6.171547999999999945e+01 -9.596152086869505493e-02
7.782700000000000173e+00 -2.571800000000000086e+00 -2.075299999999999923e+00 4.488724000000000380e+00 -9.602021879238299695e-02
7.783400000000000318e+00 -2.558800000000000097e+01 4.321699999999999875e+01 7.820030000000000037e+00 -1.718760518737126597e-01
7.806700000000000195e+00 -7.206999999999999851e+00 7.867099999999999760e+00 2.292686999999999919e+00 -4.420376914517977485e-02
7.809000000000000163e+00 -3.215599999999999881e+01 6.549299999999999677e+00 -2.102164999999999839e+00 -1.343983895993169919e-01
7.809300000000000352e+00 -2.298600000000000065e+01 2.337900000000000134e+01 3.234855999999999909e+01 -7.100553853509308788e-02
7.809400000000000119e+00 -2.605099999999999838e+01 1.256799999999999962e+01 4.104883000000000060e+00 -2.815523094775715385e-02
7.809400000000000119e+00 -2.605099999999999838e+01 1.351600000000000001e+01 -4.019682999999999673e+00 -8.352440969171226470e-02
7.809400000000000119e+00 -2.584199999999999875e+01 1.183200000000000074e+01 8.066112999999999644e+00 -2.711836473015228829e-02
7.809400000000000119e+00 -2.584199999999999875e+01 1.425200000000000067e+01 -3.796641999999999850e+00 -8.120783690107929997e-02
7.810100000000000264e+00 -2.422100000000000009e+01 2.461599999999999966e+01 8.827550000000000452e+00 -7.170160530120792131e-02
7.814700000000000202e+00 -2.432199999999999918e+01 2.559499999999999886e+01 2.603292999999999857e+00 -7.170356809312733448e-02
7.819099999999999717e+00 -2.910900000000000176e+01 2.771099999999999852e+01 -7.065532000000000323e+01 -7.424294070767099851e-02
7.820700000000000429e+00 -3.761899999999999977e+01 6.316300000000000026e+00 -1.242045000000000066e+01 -7.980075166520883556e-02
7.820700000000000429e+00 -3.609899999999999665e+01 6.316300000000000026e+00 -1.997207999999999828e+01 -9.067246701523737351e-02
7.824699999999999989e+00 -7.285899999999999821e+00 1.186200000000000010e+01 -9.010585000000000733e+00 -4.289616367934333263e-02
7.828100000000000058e+00 -2.546399999999999864e+01 3.982699999999999818e+01 7.844600999999999935e+00 -1.715828702057543009e-01
7.829299999999999926e+00 -2.779899999999999949e+01 2.356899999999999906e+01 6.090666999999999831e+01 -7.456662733867910897e-02
7.835300000000000153e+00 -2.980900000000000105e+01 4.335399999999999920e+01 1.138987000000000016e+01 -1.720276968358067093e-01
7.835300000000000153e+00 -2.875900000000000034e+01 4.335399999999999920e+01 1.329493000000000080e+01 -1.719880455100347150e-01
7.837799999999999656e+00 -3.654699999999999704e+01 2.896600000000000108e+01 4.905032000000000281e+00 -1.416608299507056412e-01
7.838899999999999757e+00 -3.962700000000000244e+01 1.148600000000000065e+01 -5.550970000000000226e+01 -5.124013723863946046e-02
7.841099999999999959e+00 -1.682000000000000028e+01 1.253800000000000026e+01 5.024182999999999844e+00 -2.194568347301212030e-01
7.841999999999999638e+00 -1.528500000000000014e+01 2.951300000000000168e+01 5.771855000000000402e+00 -2.677011685759843607e-01
7.842999999999999972e+00 -2.372599999999999909e+01 3.884000000000000341e+01 -4.265272000000000396e+00 -2.665914365912742112e-01
7.842999999999999972e+00 -2.332900000000000063e+01 2.256400000000000006e+01 3.142599999999999838e+01 -7.135899725889720269e-02
7.855900000000000105e+00 -2.040200000000000102e+01 3.045299999999999940e+01 -1.821929000000000087e+01 -2.673529439148530362e-01
7.855999999999999872e+00 -2.173799999999999955e+01 1.848900000000000077e+01 1.670964999999999989e+01 -2.145797551827655913e-01
7.859600000000000364e+00 -2.534199999999999875e+01 7.504100000000000215e+00 1.467991999999999908e-01 -2.065757456641913875e-02
7.861399999999999721e+00 -2.197899999999999920e+01 3.043100000000000094e+01 -2.032880000000000109e+01 -2.672625959124309003e-01
7.862199999999999633e+00 -1.579299999999999926e+01 -3.401600000000000179e-01 5.929144000000000081e-02 -2.238293952621700222e-01
7.865999999999999659e+00 -1.493900000000000006e+01 3.004500000000000171e+01 4.040824999999999889e+00 -2.676493158115443860e-01
7.865999999999999659e+00 -1.218900000000000006e+01 3.004500000000000171e+01 -1.286419000000000068e+01 -2.677221078383431041e-01
7.871000000000000441e+00 -5.657000000000000028e+00 7.528999999999999915e+00 -2.441236999999999990e-01 -1.771689231131619302e-02
7.873700000000000365e+00 -3.394299999999999873e+00 8.669999999999999929e+00 8.769147000000000247e+00 -4.638600291085352711e-02
7.873700000000000365e+00 -2.343700000000000117e+00 8.669999999999999929e+00 3.745162999999999798e+00 -1.921637142019258157e-02
7.874900000000000233e+00 -3.849399999999999977e+01 1.224499999999999922e+01 -8.694993000000000194e+00 -5.471359830133720736e-02
7.879400000000000404e+00 -2.203200000000000003e+01 3.877900000000000347e+01 -4.664276000000000089e+00 -2.666684388932680227e-01
7.888600000000000279e+00 -3.501800000000000068e+01 2.842200000000000060e+01 1.727286000000000143e+01 -3.548884606540570613e-02
7.889400000000000190e+00 -8.908700000000000507e-01 1.838200000000000145e+01 2.991099000000000174e+00 -4.490677370830193499e-02
7.889400000000000190e+00 -6.817800000000000527e-01 1.911799999999999855e+01 4.534365000000000201e+00 -4.483189532891147105e-02
7.890100000000000335e+00 -2.657199999999999918e+01 7.947499999999999787e+00 3.146240999999999843e+00 -3.567700609591657746e-02
7.890299999999999869e+00 -2.448900000000000077e+01 2.385800000000000054e+01 1.418984000000000023e+01 -7.208410680952917482e-02
7.891899999999999693e+00 -1.564200000000000035e+00 2.616400000000000148e+01 -7.851917000000000257e+01 -9.568548331003638718e-02
7.894899999999999807e+00 -1.897599999999999909e+01 1.185299999999999976e+01 1.503191999999999950e+01 -1.599999999999999756e-01
7.899300000000000210e+00 -1.864499999999999957e+01 3.959600000000000009e+00 3.330462999999999951e+00 -1.320890196273997452e-01
7.901299999999999990e+00 -2.973000000000000043e+01 2.782000000000000028e+01 -2.475420000000000087e+01 -7.467179545795241125e-02
7.902999999999999581e+00 -2.347800000000000153e+01 3.305100000000000193e+01 -6.272046000000000565e-02 -2.669346468083448887e-01
7.904499999999999638e+00 -3.250699999999999790e+01 2.765599999999999881e+01 -2.450288000000000110e+01 -7.632247337704770040e-02
7.904700000000000060e+00 -3.762400000000000233e+01 2.541000000000000014e+01 2.468112000000000084e+00 -1.424591369941300145e-01
7.906100000000000350e+00 -3.017800000000000082e+01 4.250399999999999778e+01 9.777953999999999368e+00 -1.719775103197134225e-01
7.908800000000000274e+00 -3.492799999999999727e+01 7.158699999999999619e+00 -5.352890000000000370e+00 -1.043986931586182443e-01
7.908999999999999808e+00 -1.830000000000000071e+00 2.424699999999999989e+01 -1.617224999999999824e+01 -9.619626145481471879e-02
7.908999999999999808e+00 -1.620900000000000007e+00 2.351099999999999923e+01 6.821922999999999959e+00 -9.654549379614685289e-02
7.909699999999999953e+00 -1.356400000000000006e+01 3.096600000000000108e+01 -1.199093000000000053e+01 -2.675901789198421588e-01
7.925900000000000389e+00 -2.685399999999999920e+01 2.298999999999999844e+01 4.411596000000000117e+01 -7.416947053058940698e-02
7.929299999999999571e+00 -2.886499999999999844e+01 6.762599999999999945e+00 1.218073999999999962e-01 -6.607094108851106762e-02
7.929899999999999949e+00 -2.675100000000000122e+01 4.270000000000000284e+01 7.897607999999999961e+00 -1.718610526202187794e-01
7.934300000000000352e+00 -1.871799999999999997e+01 2.738100000000000023e+01 -1.212856000000000023e+01 -2.678975262407400360e-01
7.937400000000000233e+00 -3.759599999999999653e+01 2.837399999999999878e+01 5.442285000000000039e+00 -1.416532195235467029e-01
7.939000000000000057e+00 -2.290700000000000003e+01 1.619800000000000040e+01 3.165988000000000113e+01 -2.153617224033422262e-01
7.945299999999999585e+00 -1.182600000000000051e+01 2.930300000000000082e+01 -3.182036999999999782e+00 -2.678320124623562726e-01
7.945999999999999730e+00 -2.410999999999999943e+01 2.298600000000000065e+01 2.781803999999999988e+01 -7.204085510111701840e-02
7.947099999999999831e+00 -2.988700000000000045e+01 4.167600000000000193e+01 1.581269999999999953e+01 -1.719009808798897532e-01
7.955499999999999794e+00 -3.844500000000000028e+01 7.170099999999999696e+00 -5.808150000000000368e+00 -7.993125820965837902e-02
7.956999999999999851e+00 -1.684199999999999875e+01 2.764999999999999858e+01 5.574107999999999841e+00 -2.679404675723385809e-01
7.960600000000000342e+00 -7.980800000000000338e+00 2.593599999999999905e+00 2.934533000000000058e+00 -1.459279712496414430e-02
7.960600000000000342e+00 -6.580799999999999983e+00 2.593599999999999905e+00 -2.071159999999999890e+00 -1.598444036873128762e-02
7.963599999999999568e+00 -2.124099999999999966e+01 6.372600000000000264e+00 -7.308758000000000088e+00 -1.282988884368397309e-01
7.976300000000000168e+00 -1.423399999999999999e+01 -7.071100000000000163e-01 5.474902000000000241e-02 -2.201680612050661845e-01
7.982300000000000395e+00 -2.569099999999999895e+01 1.110899999999999999e+01 5.329704000000000441e+00 -2.651494862976849776e-02
7.982300000000000395e+00 -2.342599999999999838e+01 1.110899999999999999e+01 7.930328000000000266e+00 -1.294551226760302064e-02
7.983399999999999608e+00 -1.266099999999999959e+01 1.396700000000000053e+00 9.743743000000000265e-01 -5.303018730897661459e-03
7.986399999999999721e+00 -1.861100000000000065e+01 1.849899999999999878e+01 -1.051641999999999966e+00 -2.158127670391716268e-01
7.990099999999999980e+00 -2.864399999999999835e+01 7.769700000000000273e+00 1.421014999999999917e+00 -5.830335370545306622e-02
7.990499999999999936e+00 -1.982299999999999895e-01 1.668900000000000006e+01 -2.953913000000000011e+01 -4.542156385895753518e-02
7.996199999999999974e+00 -1.224499999999999922e+01 2.289099999999999913e+00 2.251468000000000025e+00 -6.863504949744213268e-03
7.996199999999999974e+00 -1.137899999999999956e+01 2.289099999999999913e+00 5.032938999999999607e-01 -8.941298832486290274e-03
7.998499999999999943e+00 -2.572100000000000009e+01 2.596999999999999975e+00 1.512782999999999989e+00 -1.393696815167441184e-02
7.998499999999999943e+00 -2.409100000000000108e+01 2.596999999999999975e+00 1.879879999999999995e+00 -1.313205918114552229e-01
8.000999999999999446e+00 -1.674299999999999855e+01 1.576299999999999990e+01 5.930559999999999832e+00 -2.169634186491656569e-01
8.000999999999999446e+00 -1.641499999999999915e+01 1.501800000000000068e+01 1.131907999999999959e+01 -2.173524539344444673e-01
8.000999999999999446e+00 -1.620499999999999829e+01 1.428200000000000003e+01 6.633323999999999998e+00 -2.177971361048579302e-01
8.002200000000000202e+00 -2.610300000000000153e+01 7.357199999999999740e+00 1.014356999999999953e+00 -3.041237669829547838e-02
8.005699999999999150e+00 -3.896699999999999875e+01 1.878999999999999915e+01 2.625704999999999956e+00 -1.452560329975928211e-01
8.007099999999999440e+00 -2.432199999999999918e+01 2.138700000000000045e+01 1.558619999999999983e+01 -7.267976653132110498e-02
8.007099999999999440e+00 -2.345700000000000074e+01 2.138700000000000045e+01 3.058747999999999934e+01 -7.195431710029177863e-02
8.009900000000000020e+00 -3.442900000000000205e+01 7.447300000000000253e+00 -2.696454999999999824e+00 -1.095298572692167960e-01
8.009900000000000020e+00 -3.302900000000000347e+01 7.447300000000000253e+00 8.816439999999999833e-01 -1.216780758977404064e-01
8.016999999999999460e+00 -6.046700000000000408e-01 2.226399999999999935e+01 2.909748000000000001e+00 -9.740607467081281723e-02
8.018100000000000449e+00 -2.746699999999999875e+01 4.250999999999999801e+01 6.402597000000000094e+00 -1.718630677466316814e-01
8.018399999999999750e+00 -2.455900000000000105e+01 1.035100000000000087e+01 -2.050927000000000167e+00 -1.842669610712682760e-02
8.018399999999999750e+00 -2.372200000000000131e+01 2.337900000000000134e+01 2.482326000000000121e+01 -7.183482896225075465e-02
8.018399999999999750e+00 -2.225000000000000000e+01 2.337900000000000134e+01 3.598714999999999975e+01 -7.089789559602892310e-02
8.019999999999999574e+00 -1.285899999999999999e+01 2.136699999999999988e-01 6.182514000000000065e-01 -2.190907009842616160e-01
8.021300000000000097e+00 -1.087599999999999945e+01 1.876600000000000046e+00 7.791207999999999467e-01 -9.779087341161632474e-03
8.022700000000000387e+00 -2.870200000000000173e+01 3.910900000000000176e+01 -4.106882999999999839e+00 -1.716223661401123368e-01
8.022700000000000387e+00 -2.718199999999999861e+01 3.910900000000000176e+01 -1.373534000000000077e+01 -1.715567617796726063e-01
8.024200000000000443e+00 -3.765800000000000125e+01 1.610099999999999909e+01 6.606036999999999715e+00 -1.489640644340018694e-01
8.027699999999999392e+00 -5.655000000000000249e+00 -3.558300000000000018e+00 6.146570000000000089e-01 -2.114077385396068709e-01
8.027699999999999392e+00 -3.955000000000000071e+00 -3.558300000000000018e+00 4.472986999999999824e+00 -9.335983943419839948e-02
8.033099999999999241e+00 -1.768699999999999939e+00 -7.836300000000000487e-01 7.761090000000000266e+00 -1.815161403988781869e-02
8.037499999999999645e+00 -5.147400000000000198e+00 1.207399999999999984e+01 1.118653000000000008e-01 -4.422405181533012319e-02
8.037699999999999179e+00 -1.801199999999999912e+00 2.763300000000000201e-01 6.861245000000000260e+00 -1.829594266352221887e-02
8.038100000000000023e+00 -3.016700000000000159e+01 5.690900000000000070e+00 -1.206787000000000054e+00 -1.506296499358891205e-01
8.041600000000000747e+00 -2.501599999999999824e+01 1.513100000000000023e+01 1.316338000000000008e+01 -7.857524006900976077e-02
8.042299999999999116e+00 -2.042699999999999960e+00 1.065099999999999936e+00 9.449379999999999669e+00 -1.831405392612862892e-02
8.042999999999999261e+00 -9.166199999999999903e-01 8.259100000000000108e+00 7.611659999999999648e+00 -1.940231912778425660e-02
8.043200000000000571e+00 -2.278200000000000003e+01 6.818900000000000183e+00 -1.498913000000000051e-01 -1.600000000000000033e-01
8.050000000000000711e+00 -3.906799999999999784e+01 2.066000000000000014e+01 1.221364999999999945e+01 -1.441042774832828610e-01
8.059100000000000819e+00 -8.083899999999999864e+00 1.098799999999999955e+01 -6.511631000000000391e+00 -4.203106833795102609e-02
8.063000000000000611e+00 -2.538500000000000156e+01 1.822000000000000064e+00 1.750485999999999986e+00 2.750770883251264093e-02
8.063000000000000611e+00 -2.538500000000000156e+01 3.371999999999999886e+00 3.388666999999999874e+00 -1.361285649029933542e-02
8.063000000000000611e+00 -2.442699999999999960e+01 1.822000000000000064e+00 2.207025999999999932e+00 -1.328836254886523460e-01
8.063000000000000611e+00 -2.442699999999999960e+01 3.371999999999999886e+00 3.574476000000000209e+00 -1.297697221272512691e-01
8.064000000000000057e+00 -2.495700000000000074e+01 2.298600000000000065e+01 2.763335999999999970e+01 -7.287864694083714956e-02
8.064399999999999125e+00 -2.257300000000000040e+01 2.262099999999999866e+01 7.075001000000000317e+01 -7.122781345037648704e-02
8.067700000000000315e+00 -3.918699999999999761e+01 1.961400000000000077e+01 1.112460999999999922e+00 -1.446599354840108764e-01
8.068899999999999295e+00 -6.216300000000000381e+00 -9.373700000000000365e-01 1.356495999999999924e+00 -1.537818265651692308e-02
8.069100000000000605e+00 -2.239499999999999957e+01 4.357500000000000284e+01 1.022913999999999923e+01 -2.665169986292280635e-01
8.070299999999999585e+00 -1.765299999999999869e+01 1.218299999999999983e+01 6.157154000000000238e+00 -2.205215075242676070e-01
8.075300000000000367e+00 3.983300000000000174e-01 1.389600000000000080e+01 7.967154999999999987e+00 -4.617625338543509400e-02
8.076700000000000657e+00 -2.255300000000000082e+01 2.407900000000000063e+01 1.487322999999999951e+01 -7.113782987551159342e-02
8.079499999999999460e+00 -2.106500000000000039e+00 2.716499999999999915e+01 -1.610403000000000162e+01 -9.518293923457263328e-02
8.080899999999999750e+00 -2.354899999999999949e+01 2.400900000000000034e+01 7.760811000000000348e+00 -7.175115861701567010e-02
8.083999999999999631e+00 -9.813900000000000290e+00 2.796699999999999875e+01 -2.577668999999999855e+01 -2.129594886125714681e-01
8.085000000000000853e+00 -2.239099999999999824e+01 2.959499999999999886e+01 -6.476364000000000232e+00 -2.673817863621187896e-01
8.085000000000000853e+00 -1.993100000000000094e+01 2.959499999999999886e+01 -3.560119000000000256e+01 -2.675312993377777504e-01
8.087799999999999656e+00 -4.600999999999999979e+00 1.248399999999999999e+01 -4.118890000000000384e+00 -4.440385077721363538e-02
8.090199999999999392e+00 -2.839099999999999824e+01 4.249900000000000233e+01 -5.891492999999999647e+00 -1.718890882558180011e-01
8.090999999999999304e+00 -6.160300000000000331e+00 -7.674899999999999778e-02 -1.230005000000000015e+00 -1.556694548464469460e-02
8.093700000000000117e+00 -1.030999999999999917e+00 5.470699999999999896e+00 1.101318999999999937e+00 -1.912462908756578858e-02
8.099299999999999500e+00 -3.168599999999999994e+01 5.789299999999999891e+00 -5.381733999999999796e+00 -1.406299044388912567e-01
8.100799999999999557e+00 -2.067800000000000082e+00 1.671100000000000030e+00 3.618075000000000330e+01 -1.832475885705977039e-02
8.101900000000000546e+00 -2.426300000000000168e+01 2.607199999999999918e+01 -1.564108999999999972e+00 -7.203264347126565881e-02
8.104100000000000747e+00 -2.415700000000000180e+00 1.329199999999999982e+01 -9.320349999999999469e+00 -4.530167513238791965e-02
8.105000000000000426e+00 -3.775300000000000011e+01 1.694999999999999929e+01 1.728329000000000093e+01 -1.480325409207638165e-01
8.105299999999999727e+00 -1.746699999999999875e+01 7.067099999999999771e-02 -3.435577000000000214e-01 -2.293542859921005594e-01
8.105999999999999872e+00 -2.309100000000000108e+01 1.166600000000000037e+01 1.330003999999999920e+01 -1.279090043020612334e-02
8.105999999999999872e+00 -2.164499999999999957e+01 1.247199999999999953e+01 1.319904000000000011e+01 -8.977280196525577738e-03
8.108999999999999986e+00 -2.114099999999999824e+01 4.273499999999999943e+01 -8.082677000000000334e+00 -2.665858092924904832e-01
8.109299999999999287e+00 -1.571799999999999997e+01 2.881299999999999883e+01 1.060238999999999976e+01 -2.678320296065059281e-01
8.110099999999999199e+00 -7.907000000000000028e+00 7.925399999999999778e+00 -3.435091000000000117e-01 -4.301277009638439230e-02
8.110400000000000276e+00 -2.289699999999999847e+01 2.186400000000000077e+01 5.467370999999999981e+01 -7.163143210113850912e-02
8.112700000000000244e+00 -2.354799999999999827e+01 1.547600000000000087e+01 4.698669999999999902e+01 -1.940722186907263211e-02
8.117300000000000182e+00 -2.125000000000000000e+01 4.097599999999999909e+01 -1.137485000000000035e+01 -2.666413093817723845e-01
8.117300000000000182e+00 -2.104100000000000037e+01 4.171200000000000330e+01 -4.447111999999999732e+00 -2.666228975368497567e-01
8.121399999999999508e+00 -2.518900000000000006e+01 2.217099999999999937e+01 1.831559000000000026e+01 -7.340083578566256040e-02
8.124100000000000321e+00 -2.116100000000000136e+01 3.041799999999999926e+01 -4.315147999999999939e+01 -2.673663870781991525e-01
8.125000000000000000e+00 -5.097000000000000419e+00 2.808299999999999841e+01 -1.280691999999999986e+01 -9.367012348533182431e-02
8.125000000000000000e+00 -3.803999999999999826e+00 2.880399999999999849e+01 -8.019521000000000299e+01 -9.409509367573962169e-02
8.125000000000000000e+00 -2.511000000000000121e+00 2.808299999999999841e+01 -8.269601000000000113e+01 -9.478908394869353660e-02
8.125799999999999912e+00 -1.128100000000000058e+01 2.852700000000000102e+01 -4.456412999999999869e+01 -2.129589005149834513e-01
8.131299999999999528e+00 -2.371900000000000119e+01 2.779299999999999926e+01 4.263948000000000071e+00 -7.172720900715787162e-02
8.134600000000000719e+00 -2.605099999999999838e+01 2.312300000000000111e+01 1.248145000000000060e+01 -7.382320161481199794e-02
8.138999999999999346e+00 -2.205000000000000071e+00 2.605999999999999872e+00 6.241541999999999746e+01 -1.835719178801248352e-02
8.139699999999999491e+00 -2.405299999999999994e+00 4.890600000000000058e+00 4.743676999999999921e+00 -1.856713140300282269e-02
8.142300000000000537e+00 -3.892699999999999960e+01 1.154499999999999993e+01 -1.613971000000000089e+01 -5.327658286590798709e-02
8.146100000000000563e+00 7.667399999999999771e-01 1.474600000000000044e+01 -2.499605999999999995e+00 -4.603073810516781356e-02
8.148400000000000531e+00 -2.941499999999999915e+01 5.855500000000000149e+00 -1.577731999999999912e+00 -1.490003273372680070e-01
8.149699999999999278e+00 -3.194699999999999918e+01 2.801599999999999824e+01 -1.558816000000000024e+01 -7.614680506381714398e-02
8.149699999999999278e+00 -3.042699999999999960e+01 2.801599999999999824e+01 -3.384349000000000274e+01 -7.529716318522079732e-02
8.150100000000000122e+00 -3.685900000000000176e+01 6.253000000000000114e+00 -3.487084999999999990e+00 -8.556172404900908024e-02
8.152200000000000557e+00 -1.984600000000000009e+01 1.196000000000000085e+01 1.798348999999999975e+01 -1.600000000000000033e-01
8.155400000000000205e+00 -2.768499999999999872e+01 7.684300000000000352e+00 2.020656999999999925e+01 -4.975783691701406164e-02
8.160000000000000142e+00 -2.928399999999999892e+01 4.250399999999999778e+01 4.290085000000000370e+00 -1.719170443907063750e-01
8.160099999999999909e+00 -1.980999999999999872e+01 2.869200000000000017e+01 -3.554527999999999910e+00 -2.676795074507460348e-01
8.161699999999999733e+00 -1.933599999999999985e+00 -1.241000000000000103e+00 2.692159999999999886e+00 -1.787008678609972381e-02
8.164600000000000080e+00 -6.147999999999999687e+00 7.507399999999999629e+00 -1.339100000000000013e-01 -1.699460882193625996e-02
8.166199999999999903e+00 -1.734700000000000131e+01 2.729299999999999926e+01 -7.761922999999999462e-01 -2.680243684459294728e-01
8.173600000000000421e+00 -3.634799999999999898e+01 2.435399999999999920e+01 -5.938337999999999894e+00 -1.435419084311181648e-01
8.173899999999999721e+00 -9.601599999999999469e+00 1.718599999999999905e+00 2.292869000000000046e+00 -1.172715365982788215e-02
8.179700000000000415e+00 -2.488599999999999923e+01 2.147100000000000009e+01 1.146082000000000001e+01 -7.349202570013593783e-02
8.184100000000000819e+00 -2.245100000000000051e+01 2.865599999999999881e+01 -6.084089999999999776e+00 -2.675246059448922464e-01
8.188700000000000756e+00 -2.574800000000000111e+01 6.559999999999999609e+00 6.167868000000000350e+00 -2.596729889253302989e-02
8.188700000000000756e+00 -2.469800000000000040e+01 6.559999999999999609e+00 3.620064999999999866e+00 -1.294971939474382286e-02
8.189999999999999503e+00 -2.093399999999999928e+00 9.010500000000000398e+00 1.692474999999999952e+00 -4.649024295958287950e-02
8.198299999999999699e+00 -1.827599999999999980e+01 1.191099999999999959e+01 7.697480999999999796e+00 -1.600000000000000033e-01
8.202099999999999724e+00 -2.408800000000000097e+01 2.694300000000000139e+01 1.679032999999999998e+00 -7.201680169588364766e-02
8.213300000000000267e+00 -3.786399999999999721e+01 2.241700000000000159e+01 1.091713999999999984e+01 -1.439475751028321260e-01
8.215299999999999159e+00 -3.062699999999999978e+00 -2.471900000000000208e+00 4.308329999999999771e+00 -9.500820535917518794e-02
8.215999999999999304e+00 -2.465800000000000125e+01 4.341299999999999670e+01 1.208402000000000065e+01 -2.664628294104250394e-01
8.217399999999999594e+00 -2.905199999999999960e+01 4.168900000000000006e+01 -7.727343999999999880e-02 -1.718405468106112832e-01
8.226000000000000867e+00 -4.061800000000000210e+01 9.484999999999999432e+00 -2.325871999999999939e+00 -8.082599748870893108e-02
8.226000000000000867e+00 -4.050000000000000000e+01 1.033200000000000074e+01 -6.627320000000000100e+00 -8.292058845837151082e-02
8.226000000000000867e+00 -4.036399999999999721e+01 8.591300000000000381e+00 -2.775917000000000190e+00 -7.917074342976074264e-02
8.227399999999999380e+00 -3.632900000000000063e+01 2.333699999999999974e+01 2.053052999999999795e+00 -1.441096572458077096e-01
8.227999999999999758e+00 -6.148200000000000109e+00 9.919999999999999929e-01 -7.365059999999999718e+00 -1.558922954736716680e-02
8.227999999999999758e+00 -6.148200000000000109e+00 1.893599999999999950e+00 -1.329486999999999952e+01 -1.577981528904810749e-02
8.229300000000000281e+00 -2.755399999999999849e+01 2.304899999999999949e+01 3.485739999999999839e+01 -7.525965477052833086e-02
8.230900000000000105e+00 -2.869000000000000217e+00 9.296300000000000452e+00 7.436586000000000141e+00 -4.604197280757200972e-02
8.231700000000000017e+00 -4.026800000000000068e+01 1.094100000000000072e+01 -7.555406999999999762e+00 -4.990294684445478052e-02
8.247400000000000730e+00 3.681699999999999973e-01 1.573300000000000054e+01 -1.389391999999999960e+01 -4.562321751131571956e-02
8.249700000000000699e+00 -2.863899999999999935e+01 2.717800000000000082e+01 -7.099393999999999494e+01 -7.460483699310252459e-02
8.257300000000000750e+00 -7.776799999999999713e+00 1.146599999999999930e+01 -2.163346999999999909e-01 -4.196919273935369177e-02
8.257300000000000750e+00 -6.585899999999999643e+00 1.213000000000000078e+01 -6.566874000000000322e+00 -4.289702709547866394e-02
8.260400000000000631e+00 -2.276099999999999923e+01 2.787300000000000111e+01 4.678599999999999981e-01 -2.676364759981165187e-01
8.262000000000000455e+00 -2.828999999999999915e+01 2.396600000000000108e+01 1.004816000000000003e+02 -7.548930598863837216e-02
8.263999999999999346e+00 -7.280800000000000161e+00 2.651899999999999924e+00 -1.031919000000000031e+00 -1.483977390169819756e-02
8.269999999999999574e+00 -6.597299999999999720e+00 2.701399999999999935e+01 -1.301837000000000089e+01 -2.130252381088996450e-01
8.273699999999999832e+00 -1.632900000000000063e+01 1.293399999999999928e+01 3.925011000000000028e+00 -2.191352539902166330e-01
8.273699999999999832e+00 -1.612000000000000099e+01 1.366999999999999993e+01 9.402155999999999736e+00 -2.184223368111138652e-01
8.275600000000000733e+00 -2.421699999999999875e+01 3.923700000000000188e+01 -3.508199999999999985e+00 -2.666126028025074257e-01
8.278200000000000003e+00 -1.919000000000000128e+01 4.392199999999999882e+00 2.130848999999999993e+00 -1.314948736918724326e-01
8.278700000000000614e+00 -2.635099999999999998e+00 4.242099999999999760e+00 8.043948999999999572e+00 -1.823553787812607144e-02
8.281299999999999883e+00 -2.613400000000000034e+01 4.273100000000000165e+01 7.411397000000000013e+00 -1.718104234936155272e-01
8.287000000000000810e+00 -2.477299999999999969e+01 3.989699999999999847e+01 3.157256999999999980e+00 -2.665677832761617627e-01
8.292400000000000659e+00 -1.765200000000000102e+01 1.687300000000000111e+01 9.133646999999999849e+00 -2.167252003330409627e-01
8.295700000000000074e+00 -2.851200000000000045e+01 2.472299999999999898e+01 9.601537000000000432e+00 -7.538370288936373231e-02
8.297599999999999199e+00 -2.049599999999999866e+01 5.200999999999999623e+00 -6.063218000000000218e-01 -1.299330483380985446e-01
8.298299999999999343e+00 -8.185000000000000497e+00 2.773600000000000065e+01 -1.252322000000000024e+01 -2.130066194254619794e-01
8.310399999999999565e+00 -4.378499999999999837e+00 8.317299999999999471e+00 5.588288999999999618e+00 -1.790664216168215417e-02
8.311999999999999389e+00 -2.286700000000000088e+01 3.860999999999999943e+01 -4.682362999999999609e+00 -2.666984183677444942e-01
8.311999999999999389e+00 -2.134700000000000131e+01 4.013000000000000256e+01 -5.641971999999999809e+01 -2.666931957628784211e-01
8.313000000000000611e+00 -2.830999999999999872e+01 2.641799999999999926e+01 -4.789983999999999753e+01 -7.468787319079445153e-02
8.313000000000000611e+00 -2.917200000000000060e+01 3.986899999999999977e+01 -3.344250999999999863e+00 -1.716829337621142149e-01
8.313299999999999912e+00 -3.372899999999999920e+01 7.505600000000000271e+00 1.148403000000000063e+00 -1.153089606582938104e-01
8.321699999999999875e+00 -2.807199999999999918e+01 6.940000000000000391e+00 1.214911000000000030e+01 -5.657013886050643592e-02
8.321999999999999176e+00 -8.640000000000000568e+00 9.352000000000000313e+00 5.130258999999999681e+00 -4.143529818920577146e-02
8.337199999999999278e+00 -3.320700000000000074e+01 2.738899999999999935e+01 -1.049727000000000032e+01 -7.729947851459190167e-02
8.337400000000000588e+00 -3.548100000000000165e+01 7.115700000000000358e+00 -1.721048000000000044e+01 -9.976044170823802903e-02
8.339399999999999480e+00 -3.661399999999999721e+01 2.248600000000000065e+01 1.938045999999999935e+01 -1.445962493412645544e-01
8.341699999999999449e+00 -1.129999999999999893e+00 2.311400000000000077e+01 2.304869000000000057e+01 -9.684852960605395966e-02
8.343799999999999883e+00 -1.720200000000000173e+01 1.648600000000000065e+01 9.114601999999999649e+00 -2.168784161125713317e-01
8.343899999999999650e+00 -2.929299999999999926e+01 4.089900000000000091e+01 -8.504298999999999609e+00 -1.717741750219306807e-01
8.344699999999999562e+00 -1.508399999999999963e+01 -6.363299999999999512e-01 -9.805568000000000062e-01 -2.221074685355258482e-01
8.344699999999999562e+00 -1.338400000000000034e+01 -6.363299999999999512e-01 -4.979648999999999881e-01 -2.191819399456417516e-01
8.348100000000000520e+00 -2.857799999999999940e+01 2.565899999999999892e+01 -9.795614000000000487e+00 -7.514963990076924116e-02
8.352100000000000080e+00 -2.794200000000000017e+01 3.904599999999999937e+01 -1.053961999999999932e+01 -1.715469260999200052e-01
8.352499999999999147e+00 -2.324800000000000111e+01 2.463899999999999935e+01 6.202579000000000065e+00 -7.191837834465553136e-02
8.352999999999999758e+00 -3.793999999999999773e+01 1.523600000000000065e+01 7.751538000000000039e+00 -1.502926941565021768e-01
8.355199999999999960e+00 -2.350900000000000034e+01 6.846099999999999852e+00 2.686262999999999845e+00 -3.444626580161654940e-03
8.359099999999999753e+00 -4.206400000000000139e-01 1.959799999999999898e+01 -1.398649000000000031e+00 -4.453162476573496731e-02
8.359299999999999287e+00 -2.561500000000000110e+00 3.428300000000000125e+00 -1.691194000000000086e+00 -1.806498531859253298e-02
8.359299999999999287e+00 -3.831099999999999994e+01 2.162300000000000111e+01 7.618443000000000076e+00 -1.443314388160742423e-01
8.359600000000000364e+00 -2.149899999999999878e+01 3.926599999999999824e+01 -1.042084000000000010e+01 -2.667299362376639449e-01
8.359999999999999432e+00 -3.129899999999999904e-01 2.129599999999999937e+01 -5.568298000000000414e+00 -9.787563207435065471e-02
8.359999999999999432e+00 -1.950000000000000067e-01 2.044900000000000162e+01 -3.311274000000000051e+00 -9.828849009215503973e-02
8.360599999999999810e+00 -5.514700000000000379e+00 2.754799999999999827e+01 -8.665539000000000769e+00 -2.129867795223386595e-01
8.364000000000000767e+00 -3.888499999999999801e+01 1.806899999999999906e+01 2.926130999999999815e+00 -1.463700158411217755e-01
8.368299999999999628e+00 -9.037300000000000333e-01 1.802100000000000080e+01 2.569281000000000148e+00 -4.464755591589025796e-02
8.369999999999999218e+00 -3.836599999999999966e+01 2.687000000000000099e+01 2.462124000000000201e+00 -1.421977285407536040e-01
8.369999999999999218e+00 -3.811200000000000188e+01 2.597599999999999909e+01 1.631404999999999994e+00 -1.425408752515271160e-01
8.369999999999999218e+00 -3.811200000000000188e+01 2.776399999999999935e+01 1.311580000000000013e+01 -1.420147455632753131e-01
8.371299999999999741e+00 -2.954200000000000159e+01 2.725300000000000011e+01 -5.038689000000000107e+01 -7.526619302796855315e-02
8.373699999999999477e+00 -1.695299999999999940e+01 1.224200000000000088e+01 2.909088000000000118e+00 -2.202175703074566171e-01
8.385699999999999932e+00 -1.810000000000000142e+01 3.527099999999999902e+00 2.142879999999999896e+00 -1.328878916072750715e-01
8.385699999999999932e+00 -1.789099999999999824e+01 2.791100000000000136e+00 1.131612000000000062e+00 -1.337238014001501107e-01
8.387499999999999289e+00 -2.013100000000000023e+01 1.888899999999999935e+01 2.533320000000000149e+01 -2.153903275233965964e-01
8.387900000000000134e+00 -2.673699999999999832e+01 4.238900000000000290e+01 5.402980999999999590e+00 -1.717935734815857207e-01
8.388099999999999667e+00 -3.893599999999999994e+01 7.566699999999999982e+00 -1.108716000000000079e+01 -8.068959753866636331e-02
8.388799999999999812e+00 -8.428300000000000125e+00 1.004800000000000004e+01 2.259360000000000035e+00 -4.141731963653831616e-02
8.391199999999999548e+00 -3.900999999999999801e+00 1.254199999999999982e+01 -7.869374000000000091e-01 -4.448114720640908987e-02
8.391299999999999315e+00 -1.408900000000000041e+01 3.037000000000000099e+01 1.206489000000000011e+01 -2.677235402621980231e-01
8.391299999999999315e+00 -1.303899999999999970e+01 3.037000000000000099e+01 -1.223140000000000072e+01 -2.677491894252784776e-01
8.395699999999999719e+00 -2.320400000000000063e+01 4.362100000000000222e+01 6.855762999999999607e+00 -2.665235996867881818e-01
8.396100000000000563e+00 -2.664499999999999957e+01 3.977600000000000335e+01 -1.653400999999999854e+01 -1.715615468610070804e-01
8.403000000000000469e+00 -2.490599999999999881e+01 3.967999999999999972e+00 4.227718999999999738e+01 -1.052950362765862208e-02
8.403700000000000614e+00 -2.388899999999999935e+01 2.089600000000000080e+01 2.851932000000000045e+01 -7.325443594997217700e-02
8.404999999999999361e+00 -2.162000000000000099e+01 4.350999999999999801e+01 -2.015221999999999980e+01 -2.665783709631942000e-01
8.407500000000000639e+00 -1.715700000000000003e+00 1.334999999999999964e+01 -4.613699000000000439e+00 -4.531177578858962274e-02
8.409499999999999531e+00 -1.973400000000000176e+01 4.624200000000000088e+00 1.824466999999999894e-01 -1.310235387318816058e-01
8.414999999999999147e+00 -2.499099999999999966e+01 1.084200000000000053e+01 1.924787999999999943e+00 -2.279001950516734015e-02
8.414999999999999147e+00 -2.412600000000000122e+01 1.084200000000000053e+01 8.218991000000000824e+00 -1.753912588681611970e-02
8.417400000000000659e+00 -7.639599999999999724e+00 7.350799999999999557e+00 2.278913000000000189e+00 -1.544412697341067744e-02
8.419000000000000483e+00 -1.812000000000000099e+01 1.810200000000000031e+01 7.601849999999999774e+00 -2.162102166803127612e-01
8.419000000000000483e+00 -1.812199999999999989e+01 1.984599999999999920e+00 6.336907999999999985e-01 -1.346039294585366641e-01
8.426000000000000156e+00 -1.823100000000000165e+01 2.711599999999999966e+01 -1.686129000000000033e+01 -2.680735303108431888e-01
8.427099999999999369e+00 -1.661700000000000088e+01 -1.360099999999999920e-01 -5.434316999999999620e-01 -2.264833098016723889e-01
8.428900000000000503e+00 -2.109199999999999875e+01 1.899899999999999878e+01 3.853417000000000314e+01 -2.149034791136797407e-01
8.429999999999999716e+00 -1.799200000000000088e+01 9.206699999999999884e-01 -1.339837000000000111e-01 -1.358109979796929823e-01
8.430300000000000793e+00 -1.200799999999999912e+01 1.403499999999999970e+00 1.463645000000000085e+00 -6.149632575619860299e-03
8.430999999999999162e+00 -2.246000000000000085e+01 1.806200000000000117e+01 1.412940000000000040e+01 -7.311099979782366420e-02
8.433999999999999275e+00 -1.624299999999999855e+01 2.796300000000000097e+01 7.014859000000000400e+00 -2.680058150552394602e-01
8.434699999999999420e+00 -3.060000000000000142e+01 5.200000000000000178e+00 -1.523984999999999923e+00 -1.467383103386432630e-01
8.436899999999999622e+00 -8.524300000000000210e+00 8.415800000000000836e+00 1.398107999999999906e+00 -4.165137592413307999e-02
8.439199999999999591e+00 -3.830400000000000205e+01 1.438799999999999990e+01 4.092976000000000170e+00 -1.510551866594958548e-01
8.441000000000000725e+00 -3.678099999999999881e+01 2.505399999999999849e+01 8.695633999999999864e-01 -1.433493118302589242e-01
8.441000000000000725e+00 -3.678099999999999881e+01 2.868599999999999994e+01 5.754872999999999905e+00 -1.421232811451194622e-01
8.443400000000000460e+00 -2.204700000000000060e+01 6.798399999999999999e+00 -1.025630000000000014e-01 -1.280731960661048441e-01
8.446199999999999264e+00 -2.794200000000000017e+01 4.168900000000000006e+01 -2.278894000000000020e+01 -1.717749066674712222e-01
8.446199999999999264e+00 -2.703999999999999915e+01 4.168900000000000006e+01 6.190352999999999994e+00 -1.717419160300550085e-01
8.451299999999999812e+00 -2.962299999999999933e+00 1.264100000000000001e+01 -2.940732000000000124e+00 -4.488848459881136094e-02
8.458700000000000330e+00 -3.803600000000000136e+01 1.256400000000000006e+01 -6.919762000000000413e+00 -5.686609799238721841e-02
8.458700000000000330e+00 -3.803600000000000136e+01 1.342999999999999972e+01 -3.521726000000000023e-02 -1.529554653756493854e-01
8.462099999999999511e+00 -1.266999999999999993e+01 2.951999999999999957e+01 -1.817429999999999879e+01 -2.678736392610131523e-01
8.465299999999999159e+00 -3.568800000000000239e+01 2.891100000000000136e+01 8.367459999999999454e+00 -1.423110268988458105e-01
8.471399999999999153e+00 -1.259300000000000086e+00 8.988899999999999224e+00 9.723642999999999592e-01 -1.893184274883470686e-02
8.471999999999999531e+00 -2.421000000000000085e+01 1.512199999999999989e+01 1.307072999999999929e+01 -2.174798149020350235e-02
8.476699999999999235e+00 -7.760099999999999776e-01 1.715899999999999892e+01 -9.050623999999999114e+00 -4.478615619115904056e-02
8.479100000000000747e+00 -3.118700000000000117e+01 2.807900000000000063e+01 -6.519131000000000142e+01 -7.606098153438833886e-02
8.481299999999999173e+00 -2.563000000000000167e+00 1.007499999999999929e+01 1.008704000000000045e+00 -4.570455651101541783e-02
8.481999999999999318e+00 -1.906700000000000061e+00 2.476500000000000057e+01 -1.588688999999999929e+01 -9.595187218114593908e-02
8.481999999999999318e+00 -1.697599999999999998e+00 2.402899999999999991e+01 1.571188000000000029e+00 -9.628447798657716050e-02
8.486499999999999488e+00 -1.178200000000000003e+01 2.866700000000000159e+01 -3.441378999999999877e+01 -2.130709946121707721e-01
8.499900000000000233e+00 -2.572599999999999909e+01 1.182399999999999984e+01 1.421875000000000000e+00 -2.760089804410015973e-02
8.502100000000000435e+00 -2.490599999999999881e+01 1.278499999999999970e+00 2.737601999999999869e+00 9.518634581336161971e-02
8.509299999999999642e+00 -2.185300000000000153e+01 2.294600000000000151e+01 2.896677999999999997e+01 -7.148825481146445227e-02
8.509299999999999642e+00 -2.185300000000000153e+01 2.381200000000000117e+01 1.857094999999999985e+01 -7.141480418770593253e-02
8.509399999999999409e+00 -2.578399999999999892e+01 1.394899999999999984e+01 -1.229058999999999990e+01 -8.437961095596564765e-02
8.512900000000000134e+00 -2.856200000000000117e+01 6.139999999999999680e+00 9.065587000000000506e-01 -6.288744521507286245e-02
8.512999999999999901e+00 -2.373699999999999832e+01 2.554700000000000060e+01 1.469368999999999925e+00 -7.233706219377653013e-02
8.520400000000000418e+00 -1.236700000000000088e+01 2.882000000000000028e+01 -2.252307000000000059e+01 -2.679809395831326269e-01
8.521000000000000796e+00 -1.957600000000000051e+01 2.787600000000000122e+01 4.705880999999999759e+00 -2.678962502992672245e-01
8.522800000000000153e+00 -5.740499999999999936e+00 1.180899999999999928e+01 -1.654176000000000091e+00 -4.332941465774839407e-02
8.525299999999999656e+00 -3.436699999999999733e+01 2.803000000000000114e+01 2.015799000000000163e+01 -1.429159336541510061e-01
8.538500000000000867e+00 -2.592200000000000060e+01 1.280100000000000016e+01 -1.182945999999999920e+01 -2.844105059552620718e-02
8.538600000000000634e+00 -2.358200000000000074e+01 1.126900000000000013e+01 1.094966999999999935e+01 -1.558179802799321799e-02
8.538600000000000634e+00 -2.257499999999999929e+01 1.227599999999999980e+01 1.351304000000000016e+01 -1.287237353624499925e-02
8.539999999999999147e+00 -2.910900000000000176e+01 2.641799999999999926e+01 -4.859969999999999857e+01 -7.548007132973243161e-02
8.541999999999999815e+00 -2.616000000000000014e+01 2.117999999999999883e+00 1.336664000000000074e+00 9.670304963603878340e-03
8.541999999999999815e+00 -2.616000000000000014e+01 3.076000000000000068e+00 1.668393000000000015e+00 -2.526564968332540781e-02
8.541999999999999815e+00 -2.365200000000000102e+01 2.117999999999999883e+00 3.335192999999999852e+00 -1.328646144936678763e-01
8.541999999999999815e+00 -2.365200000000000102e+01 3.076000000000000068e+00 1.435241999999999907e+00 -1.310743975687647667e-01
8.542299999999999116e+00 -1.037800000000000011e+01 1.415899999999999936e+00 8.180131000000000485e-01 -9.559632998288030564e-03
8.542999999999999261e+00 -2.219699999999999918e+01 2.213100000000000023e+01 4.879860999999999649e+01 -7.187382241101721025e-02
8.544999999999999929e+00 -2.984799999999999898e+01 5.364499999999999602e+00 -1.559452000000000060e+00 -1.469509927604290278e-01
8.545899999999999608e+00 -2.522299999999999898e+01 5.933699999999999974e+00 4.720992999999999995e+00 -1.984386508917757724e-02
8.548000000000000043e+00 -1.766100000000000003e+00 5.030300000000000438e+00 2.654161999999999910e+00 -1.836143292402305643e-02
8.551399999999999224e+00 -1.448700000000000010e+01 2.958899999999999864e+01 1.095410999999999913e+00 -2.678393663670957103e-01
8.553000000000000824e+00 -6.504999999999999893e+00 -2.182999999999999829e+00 8.393977999999999717e-01 -2.126903051623689755e-01
8.553000000000000824e+00 -6.251100000000000101e+00 -3.076700000000000212e+00 1.380819999999999936e+00 -2.121154149647846709e-01
8.553000000000000824e+00 -4.804999999999999716e+00 -3.883000000000000007e+00 2.149561999999999973e+00 -2.113458537346924737e-01
8.553000000000000824e+00 -3.358900000000000219e+00 -3.076700000000000212e+00 4.086548999999999765e+00 -9.389338244457438865e-02
8.553699999999999193e+00 -1.058900000000000041e+01 2.811299999999999955e+01 -6.383585999999999672e+01 -2.131096777450466606e-01
8.554700000000000415e+00 -2.163100000000000023e+01 2.988500000000000156e+01 -5.540776999999999930e+01 -2.674895704803372243e-01
8.554700000000000415e+00 -2.069099999999999895e+01 2.988500000000000156e+01 -7.924951000000000079e+01 -2.675443310033596700e-01
8.558099999999999596e+00 -2.892399999999999949e+01 5.402300000000000324e+00 1.256780999999999926e+00 -6.789974429403405898e-02
8.561199999999999477e+00 -3.931099999999999817e+00 9.117900000000000560e+00 6.323126000000000246e+00 -4.518302875748680253e-02
8.563200000000000145e+00 -2.747800000000000153e+01 6.791500000000000092e+00 4.203630999999999673e+00 -4.932416902412700699e-02
8.563200000000000145e+00 -2.661299999999999955e+01 6.791500000000000092e+00 4.592016000000000098e+00 -3.829195419562313185e-02
8.564299999999999358e+00 -1.306000000000000050e+01 2.870499999999999829e+01 -1.636921999999999855e+01 -2.679934909247981834e-01
8.564999999999999503e+00 -3.025400000000000134e+01 3.375999999999999890e+00 -7.343581999999999610e-01 -1.448187873367594025e-01
8.569000000000000838e+00 -3.221900000000000119e+01 6.219899999999999984e+00 -2.152044000000000068e+00 -1.309328305676258353e-01
8.574899999999999523e+00 -3.962700000000000244e+01 1.127699999999999925e+01 -2.327608000000000033e+01 -5.212178552795586339e-02
8.594699999999999562e+00 -4.564000000000000057e+00 2.851399999999999935e+01 -1.398250999999999955e+01 -2.129618668603550924e-01
8.594699999999999562e+00 -3.044000000000000039e+00 2.851399999999999935e+01 -6.552858000000000516e+01 -9.446209480380177159e-02
8.597200000000000841e+00 -1.930699999999999861e+01 1.874699999999999989e+01 1.086556000000000033e+01 -2.158941658992111490e-01
8.602100000000000080e+00 -1.493299999999999983e+01 2.891400000000000148e+01 4.749513000000000318e+00 -2.679300752142365072e-01
8.606199999999999406e+00 -2.937099999999999866e+01 2.564999999999999858e+01 -7.672601999999999478e-01 -7.603195116526600961e-02
8.612299999999999400e+00 -2.558599999999999852e+01 2.173799999999999955e+01 1.255776999999999965e+01 -7.484027556863671882e-02
